# 3D point list with one line of data per point:
#   POINT3D_ID, X, Y, Z, R, G, B, ERROR, TRACK[] as (IMAGE_ID, POINT2D_IDX)
# Number of points: 491, mean track length: 5.26581
509 -1.82935 4.31236 9.44345 92 70 47 0.357291 14 185 13 165 8 184 11 175 4 137 5 130
1505 -3.07459 3.86819 9.18912 215 205 196 0.912916 14 1638 8 1908 4 1753
119 -3.39039 -5.19083 14.2857 180 183 180 0.475661 14 400 3 493 13 386 8 582 11 508 4 379 5 304 9 366 7 508 2 462 6 346 1 542 10 434 12 392
455 -3.59644 3.04496 11.5894 44 46 48 1.3424 14 26 13 30 8 46 11 23 9 33
1108 0.758406 4.39755 8.51064 170 161 156 0.326286 14 2199 13 2010 8 2090 11 1950 9 1759
1000 2.20862 3.64089 9.18619 61 56 60 0.400462 3 1908 13 1555 4 1981 5 2067 7 1909 6 1780
121 -2.93896 -5.1484 14.3237 201 191 190 0.491987 14 402 3 563 13 388 8 969 11 504 5 409 9 761 7 507 2 563 6 765 1 540 10 438 12 500
2855 -2.82234 4.24279 9.42 3 6 21 0.206709 7 205 2 297 6 316 1 250
1110 -1.16392 3.27827 11.8664 144 148 173 1.45063 14 2105 13 2015 8 1653 4 1093 5 1252 3 1139 7 933 9 827 11 523
122 -2.36622 -4.92055 14.4139 65 31 32 0.290255 14 408 3 572 13 558 8 576 11 498 4 362 5 413 9 770 7 504 2 457 6 410 1 534 10 444 12 399
2026 -0.383108 4.01837 10.2951 172 165 172 0.281458 3 1714 13 1541 4 1202 5 2066
3144 -0.468543 3.15583 14.0385 58 13 7 0.243611 2 417 7 299 6 453
507 -3.81332 4.36649 8.86241 68 49 38 1.48068 14 124 13 162 8 101
124 -0.0249573 4.0029 10.2769 178 166 157 0.599466 14 423 3 421 13 485 8 408 11 383 4 381 5 481 9 1264 7 433 2 376 6 409
1519 -6.19962 4.47187 9.51608 136 110 85 0.433181 14 1721 8 2003 9 1696
1004 -2.87322 3.03675 11.7537 32 39 57 1.82346 3 512 13 1586 4 1077 5 495 5 702 2 418
125 0.225553 4.03573 10.1275 169 127 122 0.290412 14 428 3 431 13 349 4 324 6 370
453 1.24799 3.97119 10.5236 82 59 44 0.647585 14 50 13 26 8 51 5 32
1513 0.242073 4.239 9.62 20 3 1 0.451145 3 1886 8 1969 4 1939 5 1983 7 1060 2 1916
785 -0.418836 2.89512 13.803 51 11 6 0.44257 14 547 13 882 4 639
128 -1.16297 4.09553 9.75516 65 53 52 0.585562 14 438 3 398 13 356 8 361 11 392 4 328 5 346 9 283 7 334 2 359 6 318 1 406 10 326 12 457
314 1.81412 3.49508 9.42399 91 69 56 1.95739 14 1175 3 1736
129 -0.802507 4.14112 9.7889 186 183 193 0.53663 14 440 3 497 13 408 8 796 11 268 4 376 5 352 7 339 2 381
1302 -3.42936 4.06656 8.82283 208 212 204 1.12213 14 461 8 809 11 207
130 -1.39679 4.14577 9.7646 171 158 150 0.407413 14 442 3 716 13 409 8 422 11 323 4 374 5 354 9 476 7 726 2 713 6 629 10 524 12 459
1207 -6.16951 3.64956 10.8708 18 22 21 2.56233 14 115 8 240 9 117
789 -1.13908 3.30288 14.1027 81 62 45 1.43663 14 665 13 892 4 646 4 1419
132 -2.50155 4.23038 9.39501 21 22 26 1.27499 14 452 3 1235 8 614 4 746 5 794 4 749 7 729 1 754
318 -1.10331 4.20534 9.54089 173 161 161 0.264328 14 1226 3 1771 13 914 8 1962 4 1930 5 1985 9 976 7 1948 2 1778 6 1748 1 1751
1193 -2.84957 -3.43722 14.739 187 186 182 0.33023 14 153 8 148 11 144 9 130 12 157
2008 -1.44552 3.55128 13.278 70 53 45 0.630048 3 1136 13 2264 4 1082
133 -4.06367 3.79416 9.72343 6 9 16 1.79858 14 457 3 675 13 389 8 766 14 745 11 520 4 1172 9 282 2 798 6 1510
134 -0.413123 4.29142 9.46304 82 60 37 0.542272 14 464 3 369 13 424 8 444 11 410 4 335 5 292 9 550 2 747 10 529
3243 2.44995 3.49692 9.30301 71 72 93 0.260645 7 1538 6 1751 1 790
3034 -2.43755 4.51287 8.25994 132 134 146 0.0918786 7 1979 2 1979 6 1802
312 -4.22564 3.60147 10.005 8 13 17 0.634039 14 1156 3 1560 13 615 4 1144
135 1.08914 -4.9697 14.568 181 180 177 0.294257 14 468 3 488 13 561 8 575 11 501 4 363 5 767 9 368 2 459 6 345 1 297 10 646 12 509
1300 0.577526 4.19729 9.59089 12 4 0 0.8946 14 784 8 807 11 755 4 814 9 984 8 1093 2 1935 1 792 10 1001 12 1092
793 -4.46859 3.09358 10.8174 19 22 27 0.920084 14 1072 13 906 4 1089
136 1.08313 -5.13867 14.5414 170 161 160 0.612355 14 474 3 490 13 808 8 579 11 506 4 391 5 414 9 364 7 511 2 461 6 344 1 295 12 502
258 1.07341 -4.64469 14.6146 175 170 166 0.704991 14 987 3 1060 13 827 4 2083 5 1171 7 2228 2 1110 6 1244 10 634 10 1449
137 0.594399 3.715 10.4891 203 201 223 0.528596 14 488 3 413 13 608 11 307 8 295 4 424 5 465 9 319 7 422 2 366 1 444
1310 -0.338924 4.53476 8.33648 88 67 45 0.337658 13 749 8 836 11 1157 4 542 5 1108
138 -1.18584 3.55518 11.068 166 161 158 1.40029 14 512 3 1165 13 325 8 514 4 437 5 458 9 843 7 680 2 665 6 1092
1819 -4.62288 3.05229 10.5077 18 21 26 0.229651 13 2260 11 1816
3352 -3.34983 3.75281 9.92854 1 3 18 0.241303 6 1511 7 1266 1 1858
139 -4.29529 3.11955 10.3153 9 13 16 0.985118 3 632 8 330 4 449 9 313 7 657 2 1496 1 1195
797 4.1557 3.10357 12.3624 98 80 76 0.603979 3 1578 13 917 5 2201 8 1628
140 -4.0592 3.5094 9.95415 15 20 23 1.43835 14 527 3 1153 13 487 8 743 11 305 4 435 4 1135 9 320 2 1139 6 1457
262 0.623077 -4.55526 14.6408 115 109 109 1.06934 14 996 3 1062 13 1375 8 1352 5 753 9 776 7 593 2 579 6 953 10 1322 12 951
1201 -0.382166 3.78893 10.4782 162 149 141 0.82007 14 197 8 195 4 143 3 210 9 152 1 249 10 166
3346 -2.1559 4.55118 9.27331 69 58 49 0.492805 2 1918 1 1737
141 3.9897 3.18688 12.4566 23 3 0 0.681067 14 536 3 361 13 406 8 529 4 295 5 451 7 319 2 394 6 312 1 248
142 -1.64295 3.17835 14.4382 81 61 37 1.18294 14 540 3 620 8 955 13 1063 11 667 4 641
256 0.941715 -4.6535 14.6304 208 194 194 0.392844 14 983 3 1058 8 1313 11 1585 8 1469 4 1011 5 1170 7 590 2 1111 10 1317
143 -0.457677 3.02793 14.0049 99 55 52 0.842692 14 541 3 622 13 515 8 531 11 469 4 640 5 445 9 525 7 912 2 1184 10 585
1308 0.740319 4.44184 8.44864 193 184 179 0.940191 14 828 8 832 5 2216 4 893 9 630 7 1119 2 2078
865 1.89848 3.66055 9.64436 77 61 52 2.18828 14 1560 13 1106 5 654
144 3.98166 2.63616 12.5094 225 233 253 0.863264 14 542 3 291 13 518 8 532 4 459 5 444 7 219 2 280 6 209 1 124 10 877
266 0.710587 -4.46722 14.6717 177 177 179 0.338905 14 1004 3 1065 13 1377 8 1357 11 612 4 572 9 1305 7 597 2 1122 6 750 1 526 10 1333 12 955
145 -0.00892395 2.51945 13.8337 109 19 24 0.623017 14 551 3 285 13 525 8 541 4 283 5 342 9 815 7 298 6 280 10 591
1382 -2.07476 4.56136 8.49279 67 50 40 0.365494 14 833 8 1150 11 516
146 -0.450124 2.3599 13.7974 126 110 98 0.476887 14 552 3 2118 8 416 4 1053 9 305
1891 0.702956 -3.95899 14.8101 154 152 155 0.764279 8 132 4 101 9 110 7 77 2 92 6 97 1 82 10 131 12 153
1159 2.86448 2.9921 15.1878 83 64 49 1.2394 13 150 6 1396 4 157
147 -3.42586 -3.45598 14.6957 197 197 199 0.413223 14 555 3 602 13 530 8 546 11 478 4 444 5 434 9 535 7 474 2 606 10 465 12 414
869 -4.8256 3.85652 9.97056 39 43 46 1.13541 14 1563 13 1118 11 1265 4 1649
148 -3.79466 -3.61438 14.6363 172 172 170 0.525798 14 557 3 510 13 862 8 549 11 642 4 620 5 734 9 537 7 522 2 604 6 488 1 507 10 604
270 1.42687 -4.41685 14.7272 188 183 183 0.368973 14 1010 3 1068 13 1379 8 1360 11 804 4 1015 5 1182 9 1308 7 561 2 1125 6 956 1 651 10 1470
1209 -2.14652 4.08616 7.64573 19 10 6 1.3157 8 244 9 460
149 0.533081 -3.65207 14.8643 184 177 184 0.637653 14 558 3 600 13 531 8 679 4 470 9 799 7 476 2 428 1 423 10 603 12 985
264 -3.55359 -3.44352 14.7111 178 178 180 0.424462 14 1000 3 1094 13 990 8 681 4 1045 9 1006 6 1003 1 679 10 1373
151 1.85818 -3.81256 14.9192 174 173 175 0.37933 14 560 3 472 13 536 8 550 11 485 5 433 9 543 7 364 2 433 6 471 1 318 10 608 12 736
1380 -4.30106 4.44098 8.12957 72 113 135 0.447968 13 2056 8 1144 11 1092 9 1806
873 -4.344 3.89504 9.84616 41 45 46 0.394197 14 749 13 1125 8 776 11 728 4 2123 9 1057
1390 -0.616825 4.63353 7.93753 72 52 32 1.33071 8 1178 4 947 14 2341
154 0.557588 -4.27972 14.7082 156 155 160 0.314617 14 567 3 509 13 543 8 556 11 518 4 499 5 429 9 546 7 492 2 475 6 474 1 311 10 457 12 744
1899 -4.02994 4.15954 9.20118 72 47 27 2.02316 3 314 4 138 2 378 7 425 6 608
284 -5.87563 2.95269 11.3372 59 58 57 0.322923 14 1050 3 460 13 2265
1167 -4.93905 3.65946 9.0479 242 240 245 0.811994 14 51 8 35 11 48 9 34 10 32
3432 -5.117 4.75074 9.27643 7 13 25 2.57319 11 1905 10 1127
155 -3.77773 -4.24647 14.4782 141 44 56 0.400803 14 568 3 478 13 540 8 558 11 488 4 476 5 422 9 545 7 487 2 587 6 514 1 515 12 409
877 -1.98019 4.10312 10.2152 57 16 5 1.26575 14 1601 13 1131 8 1885 11 1295 4 2160 3 1681 5 864 2 1678 7 1331
156 0.760289 -4.33424 14.7093 156 155 162 0.325541 14 569 3 476 13 544 8 557 11 490 4 478 5 426 9 401 7 494 2 441 6 475 1 309 10 560 12 745
278 -2.08655 -3.52311 14.7604 54 41 52 0.427379 14 1031 3 1903 13 979 8 1529 11 1527 4 1343 5 1202 9 1680 7 824 2 1151 6 1314 1 1117 10 1368 12 1359
1153 -2.76125 4.12351 10.2337 13 6 0 0.564888 14 1193 13 2246 11 734 4 714 5 2054 9 1439 2 1659 6 1981
3426 -4.08026 3.83362 6.18582 61 46 29 0.787478 8 2284 10 2498
157 0.554969 -4.48633 14.6577 178 178 176 0.448322 14 572 3 479 13 546 8 562 11 494 4 482 5 423 9 451 7 496 2 445 6 477 1 307 10 627 12 749
158 -3.77789 -4.4625 14.4279 148 47 66 0.364183 14 573 3 481 13 545 8 564 11 492 4 480 5 401 9 399 7 490 2 443 1 520 10 453 12 405
159 -2.37646 -4.51671 14.5096 188 166 179 0.337653 14 574 3 583 13 547 11 495 5 418 7 599 2 580 6 510 1 524 10 452 12 381
1388 -1.30865 4.64685 8.14364 16 2 1 0.502526 14 1315 8 1172 9 1158
817 1.14113 -3.56853 14.9016 106 96 94 0.773677 14 1973 13 976 4 1337 5 1446 9 1667 2 1153 10 2439 12 1353
160 -2.93766 -4.51075 14.4739 55 39 39 0.847341 14 575 3 482 13 277 8 309 11 1602 4 481 4 1294 5 317 7 493 2 446 6 489 1 523 10 297
976 -3.18239 3.78946 10.4326 2 0 0 0.798993 14 733 13 1479 8 340 11 367 5 2115 9 871
161 1.11357 -4.54609 14.6787 173 171 174 0.375489 14 576 3 480 13 551 8 563 11 282 4 266 5 318 9 377 7 281 2 448 6 263 1 305 10 454 12 523
1334 -4.17944 3.1649 10.2375 51 52 56 1.05519 3 1057 14 1125 8 985 10 850
3549 2.15506 -3.85153 14.9435 187 185 187 2.49116 14 1946 11 1652 5 1429 9 2112 2 1352 6 1294 8 1520 7 891 2 1367 6 989 12 1966
162 1.87169 -4.67299 14.7008 173 167 169 0.249949 14 578 3 483 13 553 8 565 11 357 4 485 5 421 9 375 7 277 2 449 6 262 1 219 10 451 12 591
1843 -4.31535 4.3084 8.11525 150 163 172 1.35102 14 2210 11 2069 9 1774
3014 -0.200484 4.05171 10.0598 193 187 191 0.289859 4 1759 7 2246 2 1754 6 1646
292 -2.65099 -3.22546 14.6633 138 136 135 0.327042 14 1077 3 1103 6 1325
1111 -1.65024 4.50023 8.63688 104 84 60 0.277794 14 2198 13 2017 4 873 5 942 7 1974 2 1982 6 1810
163 2.28858 -4.73434 14.7344 143 138 144 0.399834 14 579 3 484 13 555 8 566 11 356 4 487 5 420 9 373 7 274 2 451 6 349 10 566 12 516
2002 -2.2715 -3.8914 14.5232 104 27 39 1.16667 13 1724 4 1032 2 1343
821 1.3587 -4.42284 14.7613 116 107 110 1.09984 14 1013 13 989 5 1379 2 1303 10 1471
164 1.09827 -4.79346 14.6163 172 170 173 0.498833 14 580 3 270 13 296 8 568 11 280 4 251 5 314 9 292 7 273 2 453 6 260 1 301 10 639
1495 -2.06776 4.01608 10.5272 13 1 0 0.918242 14 1562 8 1852 11 978 9 1413
980 -5.0092 3.49347 9.62938 1 5 8 1.72105 14 1501 8 1773 11 958
166 1.625 -4.948 14.6093 175 167 171 0.746587 14 582 3 487 13 817 8 571 11 277 5 312 9 369 7 268 2 458 6 255 1 296 10 1413 12 372
167 -2.07882 -4.67024 14.4884 145 89 97 0.367149 14 590 3 578 13 829 8 567 11 496 4 600 5 417 9 775 7 596 2 575 1 529 10 449 12 563
1332 -5.11695 3.81139 9.00231 223 226 236 0.30165 14 1204 8 981 9 904
3547 -2.01457 -5.19668 14.4067 99 98 101 1.81116 14 1815 13 1609 4 1248 9 1547 12 1829 14 401 3 547 13 387 8 589 11 507 4 367 5 410 9 365 7 510 2 561 6 761 10 437 3 565 11 503 7 566 2 564 1 541
825 -1.56807 3.33489 11.9016 90 73 57 1.36122 14 1009 13 1001 8 979 11 462 4 1487 9 2032
168 -1.02024 4.14075 9.86167 48 28 38 0.480217 14 597 3 719 13 407 8 419 11 747 4 371 5 351 2 718 6 844
3165 -2.284 5.46828 9.14798 0 0 0 3.07387 5 1635 7 1120
984 -0.700841 3.83377 10.4262 168 168 197 0.445734 3 2148 13 1493 7 1307
169 -2.64958 -4.82302 14.4184 192 138 139 0.551269 14 605 3 2107 5 496 7 832 2 1101 6 377 12 514
1342 -0.873078 3.68809 10.5686 166 155 150 0.567738 13 604 8 1031 11 696 5 669 9 858 7 694 10 1277
170 2.10743 -4.84374 14.6837 193 184 187 0.358435 14 606 3 576 13 822 8 650 11 603 5 758 9 768 7 509 2 573 6 497 1 300 10 640
1851 0.586896 -3.75194 14.829 190 184 184 1.54704 13 1737 11 2123 7 1692 6 992 10 1531 12 981
300 2.23399 -4.85389 14.6778 187 176 177 0.384095 14 1103 3 1050 13 1631 8 1345 11 602 4 594 5 1167 9 1293 7 584 2 1273 6 496 1 638 10 1764 12 1887
1119 -0.966362 4.57458 8.25321 95 77 57 0.176526 14 2275 13 2074 5 1891
3384 -0.158683 3.73292 10.5621 138 126 128 0.496678 9 861 10 851 12 1055
171 -2.24457 -4.79109 14.4469 90 31 44 0.339922 14 607 3 1294 13 1367 8 1312 11 604 4 1275 5 769 9 1298 7 812 2 1103 6 946 1 1053 10 1253
2010 -4.49758 3.18581 10.2605 16 17 19 0.734791 13 1594 14 687 4 1112
829 -0.41201 1.67941 13.7013 204 181 114 0.519285 14 2002 13 1008 8 1554 4 1369 9 2097
172 -2.32109 -4.76249 14.4513 169 113 122 0.412323 14 609 3 1051 13 824 11 605 5 764 9 1301 2 1105 6 948
1503 2.46681 3.78356 9.47221 153 148 152 0.993055 13 1660 8 1884 4 782 5 863 7 194 3 370 2 310 6 179
294 1.92123 -5.24497 14.4915 134 124 127 0.992793 14 1084 3 1033 13 1349 11 589 7 883 6 1212 1 1014 12 1860 14 1816
1105 -3.22432 4.24468 8.25594 32 122 151 1.92051 14 2177 8 2058 11 1923 4 2013
1984 -0.462041 3.10962 5.79107 78 63 48 0.669977 11 2018 4 888
3378 2.10462 -4.62781 14.7146 160 155 156 0.628443 6 1245 10 631 12 949
173 0.687679 -4.65484 14.6184 196 189 189 0.340717 14 610 3 579 13 828 8 652 11 607 4 598 5 756 9 773 7 501 2 576 6 506 1 531 10 635 12 947
174 -3.72831 -4.62096 14.4129 164 155 153 1.2789 14 611 3 1055 13 831 8 1350 11 609 4 603 5 502 9 779 7 598 2 578 6 954 11 883 1 1064 10 638 12 533
1497 2.20512 3.60057 9.18415 43 43 40 0.47092 13 2228 8 1859 5 2077 7 1717
288 -3.08385 -3.98488 14.5965 123 53 61 0.354331 14 1063 3 1348 13 1719 8 1502 5 1393 9 1647 2 1337 6 1295 1 1829 10 1504 12 978
175 0.769924 -4.60558 14.6392 108 98 100 0.306789 14 612 3 581 13 830 8 655 11 608 4 602 5 754 9 774 7 500 2 577 6 507 1 530 10 1320 12 950
1340 -1.77528 3.68743 10.8021 61 53 42 0.437547 14 710 8 1025 11 522 9 853
769 -4.30091 3.72795 8.40227 130 161 202 0.457297 14 782 13 803 11 401
176 -3.49001 -4.50422 14.4591 190 174 177 0.39459 14 614 3 582 13 834 8 653 11 611 4 606 5 759 9 782 7 602 2 1120 6 511 1 522 10 431 12 247
298 -2.58131 -3.34241 14.7971 84 61 69 1.05375 14 1099 3 1097 13 1760 11 648 7 625 2 1158 1 1120 4 1355 10 598 12 1996
177 1.31035 -4.5125 14.7026 190 184 190 0.307946 14 615 3 585 13 833 8 660 11 610 4 604 5 750 9 777 7 499 2 581 6 508 1 528 10 1329 12 954
178 -2.62076 -4.4137 14.5257 84 19 35 0.499463 14 617 3 1019 13 837 8 659 11 616 4 1300 14 1064 5 1173 9 784 7 603 2 1124 6 512 1 656 10 625
3030 -3.98093 3.86598 11.7897 21 22 26 0.246415 7 1878 2 1928 6 1441
308 -1.16142 3.30973 10.8201 211 218 237 0.967398 14 1123 3 1551 13 1592 8 243 5 690 7 1940 2 1576
1191 -1.67646 -4.28068 14.7419 171 153 139 1.07239 14 140 8 131 11 129 4 100 5 83 9 109 2 95 12 189
179 1.52939 -4.44434 14.7335 107 96 97 0.31136 14 618 3 586 13 835 8 663 11 613 4 605 5 748 9 778 7 497 2 582 1 525 10 622 12 956
773 -1.87118 -4.88147 14.4559 150 74 83 0.693736 14 1861 13 823 8 574 11 497 14 284 5 771 9 372 2 455 6 503 1 532 10 445 12 513
180 -2.97329 -4.39741 14.4981 166 131 135 0.306385 14 619 3 1064 13 839 8 658 11 618 4 1018 5 755 9 1314 7 604 2 1126 6 970 1 657 10 626 12 962
302 2.02399 -3.63399 14.9736 55 58 64 0.369366 14 1107 3 603 13 799 8 680 11 639 4 617 5 727 9 1256 7 615 2 605 6 528 1 508 10 1036 12 1347
1992 3.46852 4.51909 8.40133 58 48 42 1.09778 3 1656 5 1871 13 2052
181 -2.25652 -4.35849 14.5451 131 55 70 0.448831 14 620 3 1067 13 841 8 662 11 620 5 752 7 605 2 1128 6 909 1 659 10 623 12 963
182 1.5917 -4.36697 14.7655 186 184 189 0.455772 14 621 3 588 13 838 11 617 4 479 5 427 9 780 7 495 1 308 10 618 12 746
3163 2.50377 4.00229 9.65439 76 62 61 2.3896 2 468 6 679 1 812
3018 -4.33339 4.70501 9.01122 146 136 124 2.00906 3 1940 2 1782
296 1.29086 -5.1285 14.5509 165 159 160 0.759468 14 1089 3 1039 13 1321 8 1337 11 833 4 994 5 773 9 1288 6 932 1 634 10 1398
183 -3.53516 -4.28408 14.5079 118 31 44 0.887729 14 622 3 587 13 542 11 489 4 270 5 319 9 297 2 585 10 456
1284 -1.12947 3.3163 11.4904 148 141 148 0.544265 13 907 8 716 5 1256
184 0.43247 -4.3473 14.6806 161 156 153 0.457211 14 623 3 1072 13 840 8 665 4 1019 5 747 5 1181 13 927 9 1313 2 584 6 967 1 521 10 619 12 960
306 -4.81982 3.13079 10.3644 49 54 57 0.884459 14 1116 3 1475 8 1670 11 682 4 1102 4 1498
1294 2.10787 3.42974 9.12468 178 169 185 0.31333 14 741 8 760 4 387 3 498
1803 -3.40337 -3.28157 14.7067 191 191 189 0.939528 8 1541 11 1688 4 2089 5 1449 9 1697 10 1575 12 1145
316 -0.360022 3.98886 10.4789 141 129 131 0.51228 14 1181 3 1213 13 627 8 778 11 979 4 709 5 653 9 1013 7 1000 2 833 6 1125 1 1804
1199 1.33946 4.88601 8.0186 98 77 59 2.16249 14 169 8 169 2 66
3336 -0.756593 3.39299 11.2313 199 215 253 0.250386 7 2008 1 1264
187 -2.48414 -4.11819 14.5948 164 88 95 0.462398 14 627 3 1078 13 845 8 667 11 628 4 610 5 746 9 790 7 609 2 590 6 746 1 665 10 615 12 742
781 -0.205274 1.79816 13.713 128 99 76 0.773353 14 1030 13 872 8 1556 4 1372 11 1701 7 1733 6 1336
188 0.465407 -4.1396 14.7408 173 162 168 0.736641 14 628 3 593 13 844 8 1365 11 627 4 1029 9 968 7 607 2 1136 6 982 1 661 10 1491 12 743
310 -1.25532 3.55272 11.1039 141 131 125 1.15421 14 1133 3 1573
1185 -3.88505 4.12983 8.80347 73 48 28 2.41149 14 182 8 113 11 118 9 121
2000 -3.32845 -5.23296 14.1701 161 153 138 0.797799 14 1808 4 989 7 1585 6 1220
3330 -1.80902 2.9565 16.1191 0 0 0 1.56175 11 887 14 2528
189 -2.38425 -4.09536 14.6051 113 30 38 0.322189 14 629 3 591 13 539 8 554 11 486 4 611 5 428 9 791 7 485 2 591 6 516 1 512 10 614 12 741
190 -3.38872 -3.98471 14.5415 164 44 53 1.76885 14 630 3 543 11 803 4 965 4 1323 7 2210 2 593 6 987 10 1509 4 2087 12 740
304 3.82719 2.44714 12.7236 27 15 19 0.527355 14 1113 3 1473 4 1398
191 1.56593 -4.06622 14.8256 181 181 183 0.859905 14 631 3 474 13 1712 8 671 8 1507 5 739 9 975 7 488 2 435 6 1284 10 613
1292 -4.93408 3.47395 8.97712 167 163 164 1.65051 14 1176 8 756 9 890 10 1259 12 472
849 -2.03694 3.66479 11.9445 160 151 140 0.304211 14 2160 13 1054 8 1720 11 929 4 1119 5 1261 9 1334
192 -3.49566 -3.99601 14.5644 162 179 171 0.379648 14 632 3 594 13 848 8 669 11 630 4 612 5 744 9 795 7 613 2 595 6 522 1 666 12 738
378 -3.18073 -4.58121 14.4299 175 162 169 0.866608 14 1882 3 1302 8 1462 9 2117 7 811 6 1260 1 1068 12 953
2599 -1.23777 3.33127 11.6824 157 153 157 0.446109 3 228 7 217 2 282 6 302 1 266
193 -2.04295 -3.98428 14.6547 186 181 185 0.401153 14 633 3 1082 13 849 8 670 11 631 5 430 9 794 2 596 6 519 1 667 10 612
1366 -3.7507 4.07089 8.61815 47 38 30 1.30016 14 802 8 1106 11 1853
194 0.95501 -3.9429 14.8068 28 19 24 0.31404 14 634 3 596 13 850 8 672 11 519 4 613 5 736 9 792 7 486 2 597 6 472 1 411 10 611
1875 -8.79337 1.80422 18.9409 201 199 186 1.25026 3 2 2 3 6 2
324 3.01404 4.55418 8.26541 101 84 75 2.34609 14 1310 3 967 5 957
853 -4.67082 3.1772 10.8662 9 13 16 1.80834 14 2131 13 1071 8 2521 4 1481
196 1.03119 -3.89456 14.8343 162 152 157 0.399477 14 636 3 1088 13 853 8 675 11 633 4 615 5 735 9 985 7 610 2 1144 6 520 1 511 10 1357 12 977
382 -3.66583 -4.41494 14.4461 115 54 69 0.318637 14 1894 3 1310 8 1475 9 1614 7 1655 12 1293
1257 0.770592 4.66477 7.41315 89 66 50 0.832697 14 506 8 481 5 280 9 676
197 1.56645 -3.72024 14.923 161 158 157 0.362142 14 637 3 599 13 857 8 677 11 637 5 729 9 796 7 614 2 603 6 526 1 510 10 1364 12 913
2596 2.10766 3.48639 9.69916 156 161 180 1.02179 3 318 7 204 2 177 6 237
198 -2.2627 -3.65587 14.723 197 190 194 0.369726 14 638 3 1091 13 860 8 676 11 640 4 573 5 776 9 801 7 619 6 995 10 605 12 732
3307 -5.28169 2.95466 10.8495 62 66 67 0.413399 6 283 7 227 1 332
376 0.960129 -4.7096 14.6276 200 184 188 0.284067 14 1870 3 1056 13 1648 8 1461 11 1522 4 1277 5 1869 9 1583 7 846 2 1284 6 1241 1 1052 10 1443
199 1.01107 -3.52626 14.9347 171 161 162 0.362794 14 640 3 604 13 864 8 682 11 643 4 621 5 726 9 802 7 620 2 607 6 530 1 506 10 1369 12 989
1364 1.95402 4.17607 9.36542 76 56 48 0.646359 14 1234 8 1102 4 827
1573 -1.76443 4.74064 7.15396 101 82 64 1.82768 3 1262 8 2473 2 2127 6 845
200 0.829842 -3.49502 14.9346 173 173 173 0.463293 14 641 3 605 13 1749 8 683 11 645 4 622 5 725 9 803 7 621 2 608 6 531 1 1833 10 1371 12 990
1582 0.199283 3.38035 13.6074 88 74 65 0.655564 3 1496 13 1842 8 2515
3325 -3.60802 -5.09956 14.2735 192 149 158 0.521831 6 1951 7 821 1 1038 10 1391 12 1864
322 0.538776 4.48846 8.25087 150 145 139 0.423771 14 1296 3 2034 8 2254 11 1095 4 912 9 1127 6 1892 7 2087
201 1.6619 -3.48841 14.9865 144 130 122 0.48601 14 642 3 606 13 865 8 684 11 644 5 437 7 475 2 427 6 468 1 323 10 601 12 731
1374 -4.38116 4.34588 8.20703 57 94 120 1.03151 14 1275 8 1131 10 557 12 195
332 -4.85969 3.48029 10.0908 49 52 57 2.18203 14 1468 3 1524 13 489 14 436 8 511 7 1860 6 1051
1279 -4.06547 2.85582 11.9752 11 13 25 0.451655 14 1086 8 701 11 1756
3416 -6.82581 4.24462 10.5191 82 60 36 0.403449 9 1453 10 2233
203 -1.92796 -3.33481 14.8202 186 183 168 0.675555 14 644 3 607 13 802 8 685 11 477 4 624 5 724 9 805 7 626 2 1161 8 1546 6 535 1 501 10 597 12 415
861 1.18478 3.93938 10.7959 89 71 57 0.129498 14 1527 13 1090 11 1227
204 -0.290109 1.3316 13.6525 174 161 170 0.586899 14 647 3 612 13 869 8 586 11 476 4 626 5 720 9 807 7 472 2 611 6 536 1 498 10 594 12 996
326 -2.57446 4.66962 7.90571 176 178 189 0.496837 14 1328 3 1995 5 1599 11 1416
1265 -2.55515 -3.47197 14.7402 195 180 184 0.406865 14 554 8 545 11 479 5 435 9 536 10 466 12 412
206 -0.468921 2.49772 13.8517 152 140 130 0.856393 14 652 3 1429 13 526 4 1058 5 713 9 814 10 475 12 421
320 -3.18672 4.21506 8.30862 150 201 232 0.367186 14 1262 3 1790 13 1213 8 1124 11 528 4 853 9 1100 2 1787
207 -1.59563 3.23979 14.4134 100 80 56 0.603194 14 662 3 1119 13 1065 8 959 11 668 4 643 5 1242 9 1041 7 647 6 1030 1 1189 10 892 12 1019
1372 -3.10585 4.25794 8.33472 13 137 173 1.69869 14 1264 8 1125 4 2008
1581 -3.57138 2.5619 13.411 169 162 152 1.71349 14 550 8 2505
929 2.69165 4.43547 8.03716 81 64 48 0.880972 14 2293 13 1274 5 580
208 4.12667 2.91081 12.3312 19 15 23 1.17901 14 666 3 656 13 888 4 649 5 704 7 449 2 659 6 431 1 355
1590 -1.26869 4.53992 8.63355 87 73 60 0.94292 14 2220 4 879
2615 0.320499 4.04665 9.36129 21 15 12 0.456469 3 739 7 375 2 744
209 -0.363995 3.28053 13.0436 63 47 53 0.516526 14 669 3 635 13 897 2 1104
1446 -0.189578 2.3841 13.7659 105 47 59 1.11855 13 1791 8 1567 9 1728 10 1602
210 1.39957 3.32168 13.1908 83 64 49 1.90011 14 670 3 1145 8 707 13 1585 11 671 4 650 4 1081 5 699 9 2008 7 937 6 1456 1 1263
1955 -1.18837 3.28675 11.7604 177 174 214 0.338343 3 645 4 656 7 664 2 1205
549 -0.0764192 2.24356 13.9482 93 42 41 1.99301 14 269 13 256 8 256 11 239 4 466 5 340 3 466 9 247 6 464 2 423 10 473
1223 -4.71842 3.61498 9.99778 2 4 9 0.264905 14 342 8 338 11 308
211 -4.31712 3.04008 10.7646 52 56 63 1.34574 14 676 3 1462 13 905 8 708 11 1812 4 1085 1 335
933 -0.989407 4.59616 8.17884 105 87 67 0.365003 3 2007 14 2295 13 1283 11 1367 4 917 5 960 9 1147 7 2042 2 2059 6 822
212 -5.96053 3.10969 10.5653 5 4 2 0.484293 14 682 3 1123 11 678 9 900 2 1180 10 843
334 -0.318234 3.79448 10.5506 140 129 125 0.346751 14 1515 3 1196 13 1083 8 1040 4 1165
213 -4.01691 3.06617 10.247 50 55 58 1.16159 14 684 3 1483 11 456 9 831 7 2197 2 1502 10 491
2612 1.0093 4.03596 10.1684 178 166 153 0.176868 3 323 7 341 2 302 6 325
214 -4.85597 3.19194 10.3456 46 51 54 1.81629 14 688 3 1482 13 1036 11 687 4 1518 9 917 7 1817 2 1493 6 1395 10 944 8 1680
3323 -2.79545 -8.80456 14.1223 165 162 143 0.117517 2 1088 1 996
328 -1.57498 4.9463 7.32993 67 49 39 1.15076 14 1417 3 960 7 1469 2 995 6 862 10 1208
215 -5.55893 3.2444 10.4104 59 63 66 2.07268 14 689 3 1127 11 685 13 583 9 842
1444 -0.0835722 2.14497 13.8528 204 163 161 1.03788 13 1022 8 1561 11 659 4 1374 9 812
1589 -1.90728 4.2639 9.34892 30 13 27 0.0928984 13 1938 8 2554
937 -2.4141 4.64344 8.10446 178 173 177 0.755928 14 1317 11 440 4 356 5 571 6 681 10 386
216 -4.7509 3.30456 10.2243 48 53 56 1.19753 14 694 3 1070 13 592 8 725 11 512 4 1117 2 1197 6 1407
1598 0.0993478 3.50782 12.0839 204 211 253 0.138556 13 2153 4 1114 2 787
3277 5.50339 8.72715 17.7642 41 30 28 0.241252 6 392 1 364
338 -2.83854 4.13963 10.1389 68 48 32 0.797625 14 1613 3 1665
1571 -1.98085 4.78461 7.29922 33 12 1 0.341593 14 1400 8 2453 5 1690
1454 -0.639178 3.05707 14.4463 101 74 60 0.662768 13 969 8 1599 5 1233 10 1134
2616 -1.23125 4.39626 9.14774 90 72 52 1.27447 3 744 7 380 2 907 6 665
218 -0.141025 3.74815 10.6109 139 128 126 0.851309 14 723 3 1025 13 562 11 699 4 692 5 667 7 1212 2 683 6 1106 1 743
1963 -0.99952 3.93852 10.1396 179 168 164 1.07666 3 1206 4 713 7 713 6 1119 1 746
557 3.2508 2.61977 12.6403 143 135 128 2.0336 3 288 14 600 13 278
348 -1.88714 4.22458 9.51664 107 91 76 2.11454 14 1692 3 807 13 420 8 433 4 751 5 619 7 732 2 855 6 1153 7 1028 1 1783 9 471
1231 1.72496 4.62341 7.64914 100 82 70 0.693279 14 216 8 384 5 376
3496 -1.89373 4.2482 9.77357 100 74 56 0.66963 10 788 12 386
219 -0.953201 3.74242 10.4001 160 155 151 0.778183 14 731 3 687 8 754 11 707 4 693 2 680
941 -2.66057 4.68141 7.82471 173 137 143 0.313048 13 1312 8 2586 14 2374 5 1608 9 1875
220 2.18382 3.435 9.32825 137 142 173 0.516442 14 734 3 319
342 0.243976 4.10559 9.88001 118 73 51 0.404953 14 1643 3 1773 13 1150 8 1935 11 1005 4 783 5 2011 9 1447 7 1040 2 1796 6 1722 1 1727 10 2387 12 1083
1217 -1.42459 3.4791 11.1574 187 175 162 0.349382 14 259 8 275 11 227 9 239
3490 -6.02311 3.22718 11.6964 53 57 56 0.849891 10 1875 12 314
2611 -1.90016 3.80635 10.4563 154 121 74 0.291313 3 305 7 323 6 425
221 -0.662907 3.86196 10.3837 53 51 69 0.51557 14 735 3 410 13 396 8 767 11 513 4 415 5 473 9 500 7 328 2 293 6 314 1 283
222 -3.49312 3.71738 9.687 0 0 5 0.777498 14 743 3 676 13 630 8 763 4 698 7 419 2 670 1 468
545 -1.91935 3.6055 12.2643 158 154 151 0.651502 14 166 13 247 8 161 11 109 9 156
336 2.36836 3.63027 9.2637 48 46 56 0.541671 14 1585 3 833 13 1645 8 1058 4 764 5 858 7 760 2 2097 7 1905 6 667 1 611
223 2.19858 3.61755 9.16752 80 67 68 0.434068 14 751 3 520 13 392 8 779 4 369 5 480 7 376 2 447 6 461 1 390
1452 -0.507423 3.01657 14.343 100 53 47 1.392 14 2045 8 1595 5 1502 9 1964 11 899 10 886 12 1012
1597 -3.8028 4.54345 8.52541 28 15 3 0.00277526 13 1233 4 867
881 -1.49055 4.03028 9.95484 200 189 193 0.484379 3 844 13 1136 1 1003
224 2.01157 3.64348 9.24753 168 169 173 0.489337 14 752 3 737 13 390 8 407 4 358 5 479 7 756 2 892 6 1769
225 -1.12384 3.93032 9.89842 165 154 158 2.2061 14 753 3 1026 13 642 11 730 11 993 4 718 14 1188 9 482 9 485 10 814 10 2382
1398 0.822608 3.4699 13.0761 186 187 218 0.0921874 14 1020 8 1209
226 0.822805 4.10463 9.99992 133 79 55 0.279352 14 764 3 551 8 1075 11 742 7 751 2 887 1 784 10 820
1907 2.14233 2.85972 9.28335 150 163 163 0.530016 3 212 13 245 4 213 7 151 2 191
356 -3.70027 -6.39499 17.5044 164 156 143 1.02387 14 1806 3 2100
1175 -3.25899 -4.42765 14.4507 220 152 167 0.480005 3 81 8 60 2 72 6 68 10 51
227 -0.305055 4.27466 9.49401 78 56 42 0.565052 14 796 3 842 13 685 8 1103 11 765 4 760 5 616 9 1495 7 1214 2 903 6 911 1 1702 10 2310
228 -4.32243 3.86408 8.18321 57 51 55 0.716385 14 800 3 1208 13 700 11 414 9 606 10 548 12 488
286 0.721478 4.13405 9.70193 186 171 168 0.495097 14 1061 3 1882 13 1163 8 1943 11 1017 4 795 5 883 9 1464 7 761 2 1929 10 1271 12 1080
1161 -4.82596 4.16362 8.63946 89 133 159 1.84304 14 3 8 3 10 2
229 -4.14539 4.04474 8.08002 119 115 115 0.437987 14 816 3 718 8 452 11 421 9 617
230 -4.02671 4.36036 7.98082 139 127 136 0.823605 14 834 3 840 13 748 11 539
3211 -3.23537 2.63149 12.8917 0 0 0 0.0323841 2 1431 13 519
280 -3.48343 -4.15285 16.7165 163 158 166 0.992393 3 1370 11 877
231 0.732635 4.61198 7.57794 202 197 189 0.310229 14 870 3 789 8 856 9 662 2 1006 6 881
1396 -3.84508 4.8563 7.61149 26 8 1 0.479765 14 1376 8 1206 9 1666
889 1.86144 4.0137 9.53833 82 65 55 1.55749 3 848 8 611 4 750 5 353 6 673 2 467
232 -1.73198 4.927 7.30372 61 43 34 0.616933 14 927 3 953 2 991 7 1454 6 858
3229 0.507452 3.73279 10.496 53 47 59 0.26558 3 1666 6 1576 1 753
354 -3.26898 -3.4794 14.7042 167 162 168 0.756539 14 1792 3 601 13 985 11 646 4 1043 5 1912 9 1062 7 1713 2 1384 10 1370 12 993 12 1993
233 -3.81981 -4.67084 14.3705 211 177 175 1.50127 14 937 3 1053 13 1372 9 1596 12 403 10 276 6 744
1915 -3.00718 3.18006 12.6428 5 4 11 1.13672 3 230 13 896 4 288 5 402 7 100 6 104
364 0.656202 -4.98072 14.5331 91 81 79 0.301093 14 1837 3 1281 13 1620 8 1341 4 999 5 1153 9 932 7 885 2 813 1 1821 10 1408
893 -1.84983 4.21989 10.0117 149 146 134 0.983945 14 596 13 1156 11 1012 10 1016
236 -5.0008 3.49755 8.95881 235 237 234 1.29318 14 942 3 2135 8 1333 11 724 9 889 11 1269
358 -2.86548 -5.2925 14.3583 172 156 140 0.839539 14 1810 3 2099 13 1607 11 786 4 988 7 841 2 1239 6 1219
1169 1.31516 -5.19335 14.5104 165 154 156 0.54785 3 39 8 39 11 40 5 43 2 35 6 35 1 28 10 45
3442 0.340368 -4.7575 14.554 103 86 75 1.29724 3 2109 13 2224 11 1578 4 1273 5 1341 7 1602 6 1238 1 1825 10 1430 13 1638 5 1334
237 1.86177 -4.06304 14.8526 178 174 175 0.476948 14 943 3 595 13 846 8 1367 11 629 4 1031 5 737 9 972 7 489 2 594 6 515 1 514 10 1352 12 975
238 0.992839 4.12722 9.82079 21 5 4 0.335082 14 946 3 837 13 666 8 1082 4 742 5 635 9 938 7 525 2 748 6 666 1 615
239 1.20207 4.28898 9.1146 70 51 36 0.284737 14 947 3 871 8 2026 7 1089 10 2315
1404 1.96485 -5.0702 14.5468 179 169 167 0.944902 14 1831 8 1339 11 832 4 996 9 1546 2 1245 12 1870
833 -4.94918 3.09111 10.409 57 61 62 1.54721 3 1470 13 1016 8 976 4 1492 9 1072 7 1801 10 495
240 -2.16601 -5.2265 14.3564 144 48 61 0.528278 14 957 3 492 13 805 8 581 11 510 4 407 9 561 2 476 1 1025 4 990 10 435
362 1.44224 -4.98707 14.4917 154 143 141 1.64318 14 1834 3 1277 7 1577
241 -2.29778 -5.20011 14.3448 166 62 71 0.774641 14 958 3 1035 13 806 8 634 11 509 4 995 14 1819 5 784 9 759 9 2128 7 581 2 1093 6 938 1 635 10 659 12 929
1350 -0.915245 4.02878 9.92881 208 203 234 0.316366 13 1137 14 945 8 1065 11 739 4 724 5 559 9 1021 7 1014 2 1729 6 1138
242 -3.54754 -5.15527 14.2839 145 80 93 0.423198 14 959 3 562 13 809 11 505 4 587 5 785 9 763 7 506 2 562 6 766 1 538 10 436 12 361
1859 -2.80174 3.78998 11.972 48 38 33 1.06527 13 1410 14 2257 14 692 8 512 11 1163 9 1344
1255 -4.30649 4.7722 7.6095 34 20 13 1.79536 14 306 8 478 11 354
243 -1.91335 -5.15779 14.3765 168 169 174 0.373482 14 960 3 1037 13 807 8 637 11 591 4 586 5 783 9 1554 7 582 2 1094 6 939 1 636 10 657 12 930
837 0.0521828 2.30469 14.1403 137 120 110 1.04105 14 2011 13 1027 5 2192
366 -2.17778 -4.93073 14.4231 223 160 177 0.375959 14 1842 3 1280 13 1629 8 1439 11 1563 5 1847 9 1574 7 1601 2 1263 6 1235
1177 -6.59172 3.48017 10.9095 9 5 8 0.771563 3 123 14 74 8 72 11 74 9 116
245 -3.72987 -5.04173 14.2974 143 61 65 0.450007 14 963 3 1040 13 815 8 640 11 595 4 571 5 782 9 767 7 587 2 1097 6 943 1 641 10 656 12 503
246 -2.68906 -5.02638 14.3653 132 64 64 0.418446 14 964 3 540 13 816 8 642 11 596 4 591 5 780 9 766 7 586 2 566 6 499 1 640 10 654 12 505
3227 2.37334 2.93794 9.51157 143 147 163 1.41194 2 1654 7 979 6 1565
360 -3.52303 -5.0594 14.313 222 155 163 1.64731 14 1826 3 1271 13 1358 14 1090 8 1335 8 1429 11 792 11 1549 4 1001 4 1258 9 1292 2 1248 6 1232 1 1041 10 1296 12 932 12 933
247 1.2867 -4.99425 14.5475 123 108 105 0.780136 14 966 3 571 13 814 8 1441 11 597 4 1257 5 766 5 1156 9 762 9 1556 7 867 2 1096 6 762 1 1026 10 649
1348 -4.79631 3.88075 10.0192 0 2 7 0.514416 14 1179 8 1052 11 1264 4 1655
841 -3.6934 3.8128 11.8568 85 95 107 1.30515 3 1538 13 1034 4 1124 7 944 2 1553 6 1059 6 1061 1 882 1 1847
248 2.25837 -4.99493 14.6583 186 178 176 0.67727 14 967 3 1047 13 813 8 1448 11 1557 4 589 4 1259 5 763 9 1291 7 580 2 1098 6 935 1 1369 10 1309 12 508
249 -3.5354 -4.92774 14.3347 206 152 168 0.405252 14 968 3 569 13 819 8 644 11 599 4 595 5 777 9 772 7 592 2 569 6 504 1 645 10 652 12 510
1358 1.42636 4.16888 9.64584 86 67 53 0.188008 14 1222 8 1092 11 1349
250 -3.4466 -4.93718 14.3652 108 37 47 0.45561 14 969 3 570 13 820 8 645 5 775 9 771 7 591 10 651
1867 -4.51327 4.71875 8.18198 70 53 34 0.852133 8 2297 14 2314 10 1189
380 1.22933 -4.51349 14.6946 90 81 82 0.302031 14 1888 3 1313 13 1673 8 1478 11 1604 5 1372 9 1599 7 1620 2 2164 6 1256 10 1460 12 1917
1263 -1.24436 3.42698 12.727 189 192 223 2.20024 14 531 8 526 9 280
3400 2.3791 -4.48826 14.7327 180 167 158 0.123831 9 1594 11 814 10 1464
251 0.724096 -4.96018 14.5425 198 190 188 0.373803 14 970 3 1043 13 818 8 648 11 598 4 592 5 768 9 740 7 583 2 567 6 763 1 539 10 1307 12 939
845 -4.49057 3.00937 10.6803 9 12 19 0.139314 13 1045 8 2517 4 1084
252 -2.48766 -4.92557 14.4044 217 195 182 0.342745 14 971 3 541 13 821 8 606 11 600 4 593 5 774 9 769 7 588 2 571 6 502 1 644 10 650 12 511
374 1.89555 -4.76566 14.677 119 113 115 0.652683 14 1868 3 1298 13 1644 9 1576 2 848 6 1233 1 1044 5 1348 12 1278
1249 -3.02048 4.61223 8.28079 129 124 124 0.7264 13 758 14 485 8 464 11 436
253 1.51576 -3.43716 14.9939 165 161 159 0.386441 14 974 3 1102 13 986 8 1397 11 864 4 1044 5 1213 9 1003 7 623 2 1159 6 1001 1 678 10 1375 12 1356
254 -2.91153 -3.82847 14.6424 43 30 37 0.316049 14 976 3 2043 13 952 8 1372 11 636 4 1034 5 740 9 994 2 1145 6 991 1 1106 10 648 12 983
368 -1.98448 -4.88319 14.4026 164 55 72 0.728223 14 1852 3 1284 8 1442 11 873 5 772 7 865 2 572 3 573 10 1409 12 1882
255 0.497753 4.04267 9.89284 209 191 187 0.787241 14 980 3 1769 13 654 8 1916 11 2164 4 771 9 1004 7 1038 2 1793 6 1716
1356 0.601397 4.13757 9.65551 24 16 13 0.128546 3 836 8 1087
257 1.01125 -4.66268 14.6386 69 51 52 0.299679 14 984 3 1059 13 1371 8 1351 11 858 4 1010 5 1169 9 1300 7 589 2 1109 6 505 1 647 10 1318
259 -4.35021 3.06928 10.3257 58 61 66 1.46767 14 991 3 1476 13 1015 8 1663 9 524 1 1191
1714 -5.35556 3.43518 8.75049 76 62 51 0.279165 8 2537 11 989
692 2.37479 3.05795 9.3251 80 77 104 1.13892 14 707 13 591 5 1262
261 0.862349 -3.77279 14.8354 165 146 140 0.496247 14 995 3 1090 13 953 8 1377 4 1035 5 731 7 482 5 432 2 1147 6 524 1 671
263 -2.25626 -4.44944 14.527 209 180 185 0.278117 14 999 3 1063 13 1378 8 1354 11 1147 4 839 5 1123 9 1311 7 893 2 1123 6 966 1 1075 10 1327 12 958
696 -0.701463 3.5916 10.6625 194 198 227 0.210659 3 679 13 598 4 680 5 674 7 389 2 674 6 427 1 419
1722 -4.2999 3.79509 8.25117 156 156 166 0.352022 8 1946 11 1035 10 1765
700 0.239903 3.84884 10.8489 34 32 53 0.998406 14 726 13 607 8 197 11 361 5 182 9 163 10 165 12 193
269 0.920154 -3.47946 14.9324 69 67 68 0.467653 14 1008 3 1098 13 983 8 1395 11 1528 4 1041 5 723 7 622 2 1155 6 1000 1 677 10 1372
271 1.6813 -4.40507 14.758 87 81 85 0.450974 14 1014 3 892 13 1677 8 1484 11 855 4 1296 5 1185 9 1602 7 562 2 1127 6 957 10 1472 12 1288
273 1.85454 -4.31736 14.7906 20 16 17 0.364231 14 1016 3 1076 13 928 8 1362 11 806 4 1020 5 1187 9 1312 7 1205 2 1132 6 963 1 653 10 1344 12 1295
275 -2.02045 -3.52091 14.7615 194 185 185 1.04667 14 1018 3 1381 8 1390 11 810 4 1345 5 1203 1 1115 10 1550
1666 -3.71753 -3.24254 14.7437 139 139 139 0.416289 14 646 11 652 4 625 7 1720 2 1393
644 -3.0026 4.56535 8.30938 36 33 50 0.269871 3 755 13 477 4 344 9 388
277 -2.61908 -4.25552 14.555 140 51 71 0.535666 14 1025 3 1074 13 934 11 807 5 1178 9 1317 7 1664 2 1927 6 978 1 1084 10 1480 12 970
279 -2.662 3.47257 11.9737 91 74 58 1.71957 14 1035 4 1504 9 2043 5 1572 3 1501 10 1747 12 1661
648 -1.92052 3.98354 10.2334 182 160 147 0.951351 14 1186 13 484 5 651 9 892
281 -0.2913 1.63063 13.7993 169 139 118 0.443766 14 1044 3 1105 13 1007 5 1218 6 1010
1674 -4.88898 3.5091 9.07275 205 213 236 0.28849 14 742 11 722 9 1015
285 1.94548 -4.06901 14.8613 22 20 23 0.346058 14 1056 3 1084 13 939 8 1368 11 865 4 1030 5 1194 9 969 7 608 2 1140 6 910 1 662 10 1353 12 1313
287 1.4945 -4.05073 14.8308 100 101 105 0.294441 14 1062 3 1083 13 1571 8 1366 11 1525 4 1914 5 1419 9 1497 7 864 2 908 6 983 1 1092 10 1506
592 -1.36569 4.33465 9.4326 85 69 43 0.613882 3 436 14 368 13 368 8 219 11 334 9 345 10 304 12 465
3021 5.66453 5.61142 17.0909 74 69 65 1.92027 7 1403 2 1799 6 1739 1 801
291 -0.500052 1.39118 13.7911 221 206 194 1.06213 14 1076 3 1401 13 1776 8 1399 11 654 5 1214 9 808 7 1728 2 1398 10 470
1618 -4.90684 3.49433 9.27695 16 15 21 1.00911 8 106 9 325 11 112
596 1.57147 4.43941 8.30204 192 209 199 0.569694 3 386 14 380 13 376 8 375 4 256 5 405 7 355 2 346 6 251 1 426
1991 -1.35854 4.66048 7.98178 81 64 53 1.25055 3 1869 13 780 4 939 5 568
3009 5.65952 5.01571 16.9681 181 174 164 2.14313 7 1315 2 1716 6 1629 1 1712
295 1.23115 -5.17223 14.5327 123 114 116 0.386986 14 1085 3 564 13 1354 8 1336 11 882 4 1245 5 852 9 1286 7 579 2 560 6 1216 1 633 10 1297 12 931
600 -3.0464 4.5409 8.04384 129 127 132 1.40614 14 385 13 382 11 161 4 355 3 757 9 199 2 757
297 -3.74788 -4.90016 14.3298 145 70 77 0.508468 14 1098 3 1278 8 1340 4 1268 5 1143 9 1297 7 1614 2 1268 6 1242 1 1050 10 1302 12 1614
299 -3.64538 -4.84344 14.3536 153 93 112 0.421039 14 1100 3 1286 13 2172 8 1443 11 811 5 1145 9 1584 7 1617 2 842 6 1246 1 1055 10 1305 12 945
604 -4.62389 3.92153 9.86113 1 5 6 0.606976 14 750 13 394 8 777 4 703
301 -2.06288 -4.78207 14.463 151 90 108 0.331536 14 1106 3 860 13 1368 8 1344 11 797 4 1008 5 1157 9 1299 7 1616 2 1102 6 1247 10 1312 12 946
1999 1.97658 -5.19684 14.5675 178 172 174 0.417433 3 1038 4 987 1 631
303 -3.82931 -3.2791 14.7299 141 136 133 0.654151 14 1110 3 1100 13 1000 8 1396 11 805 4 1359 5 1210 9 806 7 871 2 1160 6 1322 1 1124 10 315 12 291
672 -3.14348 -4.09359 14.6332 115 26 37 1.09939 14 566 13 537 8 555 11 524 4 474 9 544 7 484 2 592 6 517 1 947 10 1348 11 1643 12 1323
305 -4.89336 3.12138 10.3974 20 25 29 0.675305 14 1115 3 1472 13 954 8 977 11 680 4 1495 9 837 2 1484 6 1391 10 497
3037 -1.25648 4.56791 8.33899 94 76 61 1.42188 7 2019 2 2030 6 1852 1 1379
307 -4.42026 3.14661 10.2605 45 49 52 1.01643 14 1120 3 1130 13 582 11 817 4 1107 7 1820 2 1504
1698 -1.44325 3.45703 13.3008 122 102 84 0.141455 13 2268 11 907 4 1461
309 -4.41765 3.23617 10.2445 5 9 12 0.845273 14 1131 3 1134 13 1056 8 993 11 688 4 1116 7 1830 2 1513
2007 -3.00866 3.32595 12.6075 3 1 2 1.63721 3 628 4 1080 5 1541 7 921 2 627
3025 0.833604 4.61278 7.48047 137 155 120 1.11863 3 1657 2 1829 6 1683
311 -5.22993 3.41182 10.3123 11 15 18 1.43144 14 1136 3 2130 13 961 8 1006 4 1125 7 1837 2 1520 6 1405 2 1516
680 0.0471133 4.1152 9.89405 128 85 67 0.505822 3 501 14 771 13 568 8 793 11 746 4 735 5 875 3 821 9 953 7 746 2 875 6 651
313 -0.432106 3.92646 10.492 137 127 127 0.275855 14 1174 3 1205 13 1099 11 1241 4 1182 9 911 6 1580 10 962 12 1168
315 -3.42304 3.80033 9.88135 0 2 14 0.553727 14 1180 3 1177 13 632 8 1049 11 1256 4 699 5 657 9 1419 7 691 2 800 1 466
1706 -4.71934 3.53594 10.0658 4 7 12 1.57188 13 1459 14 1150 11 946 4 1589
684 2.2987 2.78086 9.27306 219 234 255 0.161104 14 2148 13 579 5 1257
317 -4.39559 3.86014 9.88175 0 1 4 0.561261 14 1184 3 1598 13 637 8 772 11 988 4 1175 9 894 7 1255 2 1603
319 2.31275 4.19081 9.38207 101 88 95 0.555486 14 1238 3 872 13 1177 5 894
752 -3.38389 4.26837 8.22106 146 188 211 0.315883 14 822 13 725 8 829 11 526 4 522 9 1112 10 746 12 489
321 0.689424 4.43877 8.29745 162 157 153 1.95884 14 1285 3 2029 13 1337 4 898 4 1779 13 2044 9 1122 2 2086
323 -3.12171 4.65059 8.43115 20 47 77 1.19897 14 1298 3 1941 2 755
756 -2.6534 4.49811 8.53151 13 33 60 0.460644 3 748 13 734 6 664
325 1.79786 4.51395 7.99627 105 86 72 0.54881 14 1318 3 951 8 2300 4 954 6 1927
327 -1.28171 4.84972 7.31639 52 39 33 0.576694 14 1410 3 1431 5 529 9 699 7 808 2 494 6 705 10 705
760 -3.7439 4.64724 8.25124 147 134 128 0.455965 14 839 13 763 4 428 3 753
329 -3.47094 -4.65413 14.382 136 52 68 1.5346 14 1438 3 1054 8 1455 11 517 4 601 5 1321 4 1286 9 1304 7 1632 5 1315 2 1108 6 955 10 1429 12 577
331 -6.52907 3.80585 11.197 110 97 89 2.10989 14 1467 8 1760 9 1361
764 -0.534147 4.62247 7.97973 69 48 29 0.31719 14 851 13 781 8 1177 4 944 5 974 7 2092
335 -4.96455 3.39101 8.89014 201 197 198 0.0689308 14 1544 3 2134
704 -4.22083 3.69734 9.97895 11 16 19 0.61618 3 1876 14 1524 13 619 8 1037 11 966 4 1152 9 875 10 1003
337 -2.67032 4.09249 10.2564 78 64 45 0.870286 14 1591 3 1654 13 1561 8 1880 5 2058
1062 -0.499974 2.55566 13.9177 136 137 131 1.49062 14 2023 13 1792 11 886 9 2093 11 1712 10 1608 12 2040
339 2.01811 3.76411 9.25934 167 165 170 1.13912 14 1626 3 1928 13 648 4 787 5 2056 7 1063 6 1786
341 0.681586 4.10817 9.96252 121 75 59 0.308461 14 1636 3 1784 13 1323 8 1932 11 1002 4 1893 5 2019 9 1442 7 1883 2 2208 6 769 1 1708 10 2398
343 -1.2588 4.12585 9.75871 75 53 48 0.268347 14 1656 3 1233 13 1690 11 1337 4 777 5 879 7 1023 2 851 6 1150 1 1501
3275 -3.18413 4.72284 8.44577 118 115 114 1.33801 14 2546 13 2078 4 892 3 380 2 925
553 2.30298 4.53759 7.80258 86 68 54 0.791179 14 218 13 269 5 246
344 -1.47688 4.16836 9.80023 15 11 8 0.429995 14 1658 3 1735 13 1162 8 1081 11 1013 5 632 9 1521 7 725 2 1745 6 1147 10 795 12 671
712 -4.2539 3.90861 9.85612 47 51 52 0.721153 14 1187 13 640 11 729 4 1690 9 1051 10 1260 12 793
345 0.1957 4.18522 9.87882 148 137 133 2.21681 14 1659 3 1786 11 1341 13 1897
1070 3.3049 2.58191 11.2367 26 11 21 1.13429 3 1523 13 1827 5 1240 2 1562
346 -1.18557 4.18239 9.57345 191 179 174 0.309812 14 1676 3 1761 13 1700 8 1091 11 1022 4 1924 5 1989 9 978 6 1162
1579 -3.72302 -4.42329 14.4264 178 101 113 0.142176 14 1893 8 2493 12 1926
347 2.21996 4.08458 9.36744 156 154 155 0.933739 14 1686 3 863 8 1961 4 1959
1738 -5.89957 4.38915 12.1232 5 16 32 0.514321 8 1369 11 1213
3106 -0.414907 1.91796 13.7466 165 136 130 0.491206 2 133 7 116 6 103 1 67
716 -0.273646 4.06441 10.0497 170 164 164 0.394849 14 944 13 647 8 1066 4 727 3 1237 5 865 10 811
350 -1.40499 4.88212 7.32741 13 2 0 0.138872 14 1735 3 1434
1225 0.241214 3.89717 10.6536 140 133 137 0.259405 14 345 8 343 9 322 2 370 5 273
351 -1.53931 4.94817 7.29304 17 1 0 0.563887 14 1748 3 963 8 1476 2 1405 7 1165
1068 3.95979 2.70874 12.4239 42 22 22 0.902382 3 1140 13 1813 4 1072 5 1507 7 661 2 646 6 575 1 353
656 -4.50142 3.25278 10.1669 13 17 18 0.950746 14 513 13 502 8 519 11 301 4 441 2 635 6 564 1 1089
353 -2.69699 -4.06291 14.5949 109 32 40 0.354614 14 1788 3 1343 13 1572 8 1498 11 849 4 1317 5 1386 7 1679 2 1137 6 1292 10 989 12 1327
355 1.7155 -5.42833 14.8066 157 145 138 1.79968 14 1805 3 1032 13 1605 8 636 5 1289 9 1284
1682 -3.60639 -3.67287 14.5886 201 201 201 0.994499 13 1741 11 796 10 1537 1 1111
660 -0.888537 3.37984 11.2685 171 169 186 0.691535 3 446 13 509 8 992 11 455 4 443 5 455 9 834 7 447 2 405 6 439 1 349
357 -2.1865 -5.28547 14.2402 207 160 159 1.78047 14 1807 3 1263 13 272 14 399 4 417 5 1137 9 1540 7 363 2 236 6 253 1 148 1 290 1 1024 5 162
664 2.23747 2.64721 9.2173 143 28 0 0.436327 14 525 13 513 8 530
363 -2.17554 -4.99804 14.3973 83 20 32 0.589696 14 1835 3 1276 8 1435 7 1595
1690 2.22609 -4.14386 14.8532 158 157 160 0.630072 13 1704 11 872 4 1028 7 886 2 1932 6 1710 10 2430
668 -0.00980732 2.66073 13.8589 68 15 15 0.559933 14 657 13 522 8 537 11 661 10 590
365 0.581459 -4.95376 14.5492 200 189 186 0.389503 14 1840 3 1046 9 1564 7 847 2 1254 6 941 1 1033 10 1308 12 940
367 1.26382 -4.94864 14.6091 182 171 169 0.604422 14 1846 3 1285 8 1447 13 1360 11 1559 9 1563 7 857 2 1099 6 764
371 -2.76891 -4.88343 14.3907 205 141 142 0.481438 14 1856 3 1283 13 1364 11 834 7 1612 2 1274 10 1304
1762 -4.59845 4.87447 7.88397 86 69 53 1.14062 8 2375 11 1467
373 -3.83142 -4.82172 14.3399 135 68 70 0.490619 14 1860 3 1288 13 1642 8 1342 11 1575 4 1272 5 1304 9 1586 2 1279 10 1410 12 910
375 0.698059 -4.72981 14.6053 194 186 187 0.234972 14 1869 3 1299 10 1438
744 3.21654 4.25037 8.91681 134 105 89 1.28807 3 771 13 706 5 912 7 792 2 774 1 371
379 1.18798 -4.55661 14.68 170 168 171 0.225543 14 1885 3 1061 13 2180 9 1591 6 1706
1770 0.940228 -5.15746 14.4933 183 181 182 0.357849 14 1823 11 1542 4 991 7 809 1 1367
748 -4.18292 4.09767 8.07172 171 158 154 0.371785 14 819 13 717 8 1121 9 622 11 783
381 0.471642 -4.45775 14.6671 112 113 108 1.64875 14 1892 3 1319 7 1630 7 1634
529 -0.254666 4.11094 9.73383 186 182 179 0.374838 14 240 13 216 8 271 4 162 5 232
384 -2.92779 -4.33902 14.5229 58 31 30 0.372101 14 1905 3 1318 13 1689 8 1479 11 869 4 1304 5 1364 9 1620 6 1278 10 1468 12 1300
386 1.95632 -4.29753 14.7978 14 10 11 0.370383 14 1912 3 1334 13 1687 8 1495 11 831 4 1302 5 1391 9 1606 7 866 2 1321 6 965 1 655 10 1486 12 1297
533 -0.304025 4.00663 10.3132 173 165 163 0.439354 14 247 13 225 8 230 11 219 4 192 9 230 10 373 12 329
390 2.25858 -4.22782 14.7484 85 75 73 0.753045 14 1919 3 1339 13 1694 5 1403 9 1609
537 0.751125 3.74166 10.4493 190 183 201 1.00367 14 343 13 235 4 312 3 416 9 1373 6 621 2 1694 7 1339 1 438
392 -2.92135 -4.19752 14.5522 107 42 49 0.643773 14 1921 3 1330 8 2232 11 1633 4 1308 7 1674 10 1346
1563 -2.1837 4.64166 7.31484 99 70 55 1.99089 14 1451 8 2399 11 1507 9 1899
541 -1.85168 3.73433 10.9392 32 64 56 0.731485 14 202 13 239 8 105 5 269 4 306
396 1.21624 -4.09892 14.7928 143 122 101 1.58616 14 1931 3 1350 13 1711 8 1503 11 1637 4 1309 3 1346 5 1408 5 1411 9 1631 7 880 7 1656 2 1138 1 663 1 1085 10 1502 12 1312
1052 1.78168 -3.6218 14.9439 139 135 145 0.46811 14 1968 13 1742 5 2185 7 1699 2 1379 10 1543
609 -1.7278 4.1707 10.0272 98 71 52 0.528919 3 710 14 769 13 404 8 418 11 745 4 729 5 350 9 477
1635 -4.54945 4.72141 7.85593 174 162 148 1.19084 8 235 11 259 9 195
613 -1.94156 4.23937 9.93446 79 62 46 0.313089 14 443 13 413 4 494
406 -3.75533 -3.55518 14.6591 175 171 172 0.56907 14 1969 3 1374 13 1745 8 1524 11 1674 4 1341 5 1427 9 1681 7 1712 6 1313 10 1821 12 1143
617 -0.838006 4.22148 9.51336 10 1 0 0.681092 14 448 13 418 8 439 11 402 4 754 3 827 5 622 9 338 2 882 7 1046 6 1171 10 283 12 312
408 2.11294 -3.59396 14.9945 132 132 139 0.451006 14 1974 3 1384 8 1530 11 1669 5 1452 9 1664 2 1382 6 828 10 1551 12 1348
410 -3.19656 -3.54452 14.6948 120 120 121 1.62767 14 1980 3 1380 5 1433 14 1970 10 1552 10 2438 12 1988
1643 -2.30969 4.71988 8.38556 126 120 124 2.05038 14 305 11 347 10 556
621 -4.29733 3.81876 8.26755 140 142 143 0.323785 3 694 14 459 13 426 8 429 11 332 9 461
561 1.40456 4.41999 8.44916 194 198 209 0.826934 3 519 14 592 13 288 8 462 4 345 4 896 5 367 7 790 2 772
416 -5.2321 2.39433 12.6559 204 207 198 0.977431 14 2030 3 1240 13 523 4 1383 9 531 9 1865 10 1653
720 -2.79731 4.15223 10.17 10 3 1 0.735057 3 1671 13 652 4 1204 5 486 2 1662 6 1554
3293 0.611218 4.3526 9.18321 81 63 55 1.88858 3 2186 13 1952 5 1959 7 1990 2 1064 6 685
418 -0.0744397 3.12294 13.8681 55 1 5 1.31748 14 2062 3 1464 4 1416 2 1487 10 2453 1 709
1587 -2.13517 3.68363 9.95461 79 67 63 2.32217 3 1622 8 2542
565 3.83965 2.73449 12.2921 47 17 16 1.26206 3 224 13 314 2 139
420 3.10617 2.54567 11.1091 44 50 60 0.943204 14 2067 3 1521 13 1067 5 1509 2 1214 6 1454
1239 -5.31368 4.05448 9.01869 84 118 143 0.881773 14 787 8 425 11 759 9 462 10 376
724 0.0267938 4.07636 9.94241 180 155 143 0.281857 3 727 14 763 13 658 8 1073 4 732 5 640 9 987 2 729 6 647 1 428
421 3.2583 2.56317 11.2253 194 218 246 0.656574 14 2068 3 646 13 886 8 1147 4 969 5 707 7 455 6 574
422 -5.8828 2.8563 12.1438 62 60 58 2.52228 14 2070 3 1424
1233 -4.05285 3.89167 9.70881 6 9 14 0.807954 3 1180 8 402 7 976 2 1625 6 1518
1076 -1.92224 4.15471 10.1027 79 43 31 0.266409 14 1624 13 1877 11 1315 4 1751 5 2029 9 1448
3291 -2.29051 -4.55477 14.4962 48 32 35 1.74292 14 2552 3 1305 13 1374 8 1464 11 2132 5 1164 7 1636 2 1294 13 797 9 1309 7 816 2 1119 6 960 1 1067 10 633 10 1316 12 911
569 2.06082 2.90393 9.22557 140 136 143 1.01818 3 377 13 323 4 305 5 268 7 325 2 430 6 421 1 447
424 -6.78668 3.30103 12.0905 171 170 161 2.21087 14 2096 3 2124
426 -0.804757 3.30028 11.5854 208 214 250 0.65825 14 2122 3 1534 13 2068 11 1808 2 1558 1 1238
1595 -4.00662 3.49083 8.59752 0 1 3 0.71658 14 14 11 10
573 -3.94604 3.49808 9.86828 45 51 51 1.65772 3 660 13 335 4 434 7 950
428 -0.688088 3.38459 11.5676 170 181 222 0.713393 14 2137 3 1546 13 2163 11 917 5 1500 7 1906 2 1569 6 1972
1247 -4.09567 4.23373 8.04203 138 128 129 0.344917 13 445 8 460 11 427 9 456
430 -2.98764 4.16549 8.17603 26 132 174 1.3288 14 2171 3 2045 11 426 4 2006 9 1750
1241 -5.19359 4.041 8.95106 128 172 199 0.724836 14 447 8 428 11 325 9 340
432 -4.06706 4.28423 8.04127 205 200 205 0.570557 14 2214 3 830 13 736 8 2081 11 1978 9 1119
513 -4.75969 3.80608 10.04 3 4 8 0.719872 3 301 13 174 4 207 7 320 2 402 6 438
