# 3D point list with one line of data per point:
#   POINT3D_ID, X, Y, Z, R, G, B, ERROR, TRACK[] as (IMAGE_ID, POINT2D_IDX)
# Number of points: 643, mean track length: 4.82741
2601 -1.72327 6.68895 15.9859 2 2 2 2.48206 1 1516 7 1819 2 2611 3 3659 3 3675 8 2423 9 1763 9 1781
2392 -1.06786 -3.79704 15.1088 117 119 121 1.97797 4 2699 10 2251 4 1288 5 1196 8 1788 6 1105 6 1453 9 726
1227 7.4939 6.24067 16.3054 137 133 122 0.97551 3 315 8 194 7 312 2 167 2 229 6 112 1 85 9 85
2386 -3.76894 5.63788 15.5455 179 175 164 0.580201 2 1724 6 1851
1229 0.270079 7.84112 15.8763 172 165 158 0.970459 3 375 8 203 7 295 2 216 6 127
1235 4.47385 6.21025 10.3133 10 4 4 0.927616 3 305 5 123 7 285 8 222 2 208
1236 2.03364 -3.88206 15.1767 169 152 132 1.5445 10 2319 8 230 7 340
1957 9.77469 9.06394 14.6706 113 108 102 0.631609 3 1793 7 3046 2 2482
1237 10.982 4.50861 15.9264 150 168 208 1.09534 4 3198 8 239 7 1296
1238 3.3719 6.5323 11.5354 39 18 22 1.44002 3 701 8 243 2 209
2617 -1.46916 6.68748 16.0337 78 66 56 1.24725 7 688 6 242 3 3671 8 387 2 2609 9 1775
2472 -2.16322 6.30064 15.7742 49 45 41 0.179769 6 2095 1 1907
1243 7.32331 6.69344 16.2578 100 98 92 0.95403 3 313 8 264 7 303 2 226 6 136 1 157
1244 4.12382 4.98077 11.634 115 90 94 0.70554 3 317 8 266 7 413 2 275
1965 -3.26118 6.24177 9.43887 158 148 136 1.06203 3 1728 7 3102 2 2449
2466 -4.4523 5.08489 11.0213 18 22 25 1.81058 6 998 1 1601
1245 -4.48489 5.0652 12.3708 76 48 44 1.60606 3 608 8 270 7 307 2 545
1905 4.97679 5.93032 11.3783 203 209 232 0.845242 3 3879 7 2549 2 524
1251 6.64232 5.81209 16.157 148 144 134 0.713799 3 455 8 376 7 407 2 326 6 382 1 208 9 162
1252 -1.443 6.37 15.9701 97 87 80 1.82862 3 388 8 386 6 246 1 261 9 247 9 1708
1909 -0.236908 -2.13203 15.2953 190 190 192 0.587412 4 3076 10 4464 7 2573 2 997 6 528 1 1425 9 442
1253 4.15961 5.34207 11.404 54 11 20 1.92158 3 464 8 391 7 478 6 427
1254 4.64876 5.68801 11.4556 67 5 16 0.629507 3 469 5 503 8 396 7 421 2 263
1256 2.9824 7.61832 15.896 97 90 74 0.759955 3 714 8 401 7 534 6 229
1913 10.9718 0.49695 15.9029 193 211 244 0.667122 8 2156 7 2633 2 1857
2424 -7.71331 5.26572 13.1256 226 223 214 1.26375 6 721 1 879
1259 5.54102 6.25371 10.5037 192 214 250 0.913518 3 699 8 415 7 554 2 369
1260 -7.29016 7.41281 13.0053 218 214 203 0.142322 3 788 2 856
1917 -5.36856 2.20786 12.7714 175 165 162 1.51973 3 1401 8 1376 7 2683
1262 -4.1219 5.87056 10.4857 0 2 17 0.726217 3 1628 7 2586 2 2204
1264 4.61241 5.8872 10.321 72 60 60 0.722509 3 712 8 435 7 550 2 515
1857 10.7697 7.38 15.4024 98 95 88 0.00753457 3 3512 7 1906
1267 1.26329 8.16779 14.5836 193 189 190 0.455439 3 2850 8 444 7 1507 2 507
1268 -3.80511 2.58147 13.5581 107 73 59 1.3289 3 398 8 445 7 569 2 282 6 175
1861 -1.56033 7.52534 16.0232 82 77 71 2.27329 3 3525 7 1930 2 2071 1 967 1 1695
1269 -2.96812 6.08037 10.1998 99 86 77 1.61527 3 808 8 448 2 660
1270 10.7128 3.10813 15.3098 149 158 187 0.934441 3 598 8 460 7 799
2376 -0.233157 -3.84039 15.1017 95 28 34 1.45206 10 2271 6 1427 3 1158 8 1136 7 2326 6 1087 1 1196
1275 11.0933 2.18217 15.9762 173 186 221 1.19339 3 591 8 484 7 601
1276 -2.08839 5.7834 14.3816 7 14 30 1.44731 3 2659 8 487 7 1752
1277 4.69881 4.95582 11.4606 111 95 106 1.02456 3 613 8 491 7 501
1278 4.8744 5.08152 11.7129 253 246 255 0.682116 3 906 8 492 7 1358 2 658
2243 3.02751 -2.38378 15.2684 168 159 164 0.853021 3 2200 6 624 9 2028
1280 3.35681 5.8971 13.0734 129 132 144 1.08365 3 624 8 508 7 510
1282 10.7886 -1.35443 15.4749 126 136 163 1.75194 10 296 8 511 7 781 4 428
2237 -0.105344 -2.33334 15.2731 191 190 195 1.97223 2 1783 6 532 4 3025 9 864
1285 4.6245 5.77578 11.4609 101 97 111 0.32574 3 708 8 535 2 530
1716 -1.21105 6.15033 12.0248 21 18 30 0.650251 8 544 7 538 2 389
1287 -0.920131 7.42361 15.3051 178 172 172 1.10045 3 1621 8 540 2 2086
1288 2.07665 7.71618 15.669 111 98 82 1.21612 3 378 8 546 7 1447 2 217
1289 3.26378 -2.44312 15.3585 153 151 152 0.432044 3 581 8 564 7 614 6 359 9 189
1720 2.78362 6.32496 10.6252 69 45 45 0.857447 3 698 7 557 2 372
1293 0.126628 -3.85414 15.1494 147 146 150 0.411361 5 361 8 605 7 658 2 429 6 323 1 317 9 323
1724 10.7694 -2.74327 15.4326 146 159 198 0.492591 4 1070 8 565 7 619
1295 3.20506 4.8352 13.1595 161 156 158 1.20095 3 2543 8 620 7 2805
2259 4.74389 5.37266 11.5036 152 168 187 0.504529 2 1187 6 786 1 618
1296 10.3184 -5.94398 15.3918 30 26 14 1.16124 10 953 8 665 7 1179
1297 10.9491 -4.50024 15.4717 159 187 237 1.15581 3 1090 4 709 8 676 7 1021
1664 7.04512 5.93773 16.3082 162 157 151 1.41124 8 75 7 129 2 88 6 57
1298 -1.09135 -3.34279 15.1831 35 16 27 0.309195 4 690 8 701 6 572 9 382
2189 1.10766 8.60037 15.7143 126 122 123 0.384687 8 2671 2 2299
1301 11.0808 -3.3235 15.5398 152 189 251 1.36851 3 1281 8 723
1668 -3.26206 2.13593 14.0242 66 50 51 1.20557 3 284 5 192 7 208 6 109 1 171
1303 2.62062 -2.51377 15.3015 137 124 124 0.353262 3 579 8 740 2 462 6 544 1 349 9 265
1309 10.9567 0.613342 15.8572 171 184 213 0.813849 3 978 8 781 7 791
1676 -2.83237 6.21829 9.71464 159 150 141 0.365867 3 303 7 244 2 198
1311 -3.36193 2.21746 13.9683 46 23 20 0.014518 3 1398 8 794
1312 10.7874 2.37576 15.5758 146 156 192 0.782088 3 592 8 797 7 1270
1313 -5.31593 2.23607 12.6862 46 37 38 1.33899 3 1403 5 411 8 798 4 546 7 576 7 2684 5 1431 2 1899
1616 -4.25062 5.06678 10.6539 2 6 17 0.355236 3 3718 7 1868
1314 10.7182 2.69157 15.4713 151 164 199 0.532657 3 1411 8 801
2141 -2.11792 6.91124 15.652 6 3 3 0.60081 8 914 2 2535
1319 -5.07559 2.9618 12.1056 62 37 30 0.358456 8 814 6 1061
1320 11.1782 4.03772 16.1877 153 166 201 2.20664 4 1170 8 818 7 1286 2 1927
2139 -2.63115 6.42175 9.60602 100 87 78 1.715 3 2943 7 3125 2 2492
1321 -3.06764 3.64307 13.6503 70 38 25 0.989747 8 820 7 1290
1624 2.35412 -2.43455 15.291 163 158 155 1.11339 4 3002 8 2802 7 2539
2293 -1.13697 -2.99677 15.2206 102 29 40 0.330957 10 2447 6 1212 9 1360
1322 -2.98226 4.25969 15.1437 210 200 191 1.05997 3 799 8 824 7 2749 2 1964 6 254
1327 6.79331 5.77351 16.1766 96 91 88 0.784312 3 918 8 842 7 827 2 480 6 510 1 401 9 288
2291 -1.04454 -3.11932 15.1949 112 22 33 1.01216 4 2874 6 1200 9 1447
1328 -2.71216 5.00122 13.4412 57 30 23 0.279544 3 1475 8 843 2 1768
1329 -5.03923 4.65399 12.0554 66 39 31 1.27914 3 1472 8 846 2 1132
1696 10.8502 -1.19906 15.5502 157 163 195 0.642051 4 429 7 402
1330 4.58562 4.59729 11.5234 249 244 250 0.87622 3 926 8 851 7 1332
1335 7.42571 6.69884 16.285 129 125 114 0.834121 3 870 8 878 7 841 2 544 6 394 1 267
1336 3.94545 5.1544 11.5469 14 19 38 0.619388 3 2441 8 887 7 1366 2 1158
1337 -3.8371 4.87728 10.7054 39 45 57 0.651326 3 618 8 893 2 1191
1704 -2.49317 6.25331 9.98472 167 157 147 0.744279 3 494 7 445 2 500
1338 -2.52401 5.35602 11.9259 25 29 41 0.514402 3 882 8 895 2 632
1343 -1.52297 7.19094 16.0226 133 124 120 0.833642 3 847 8 922 7 859 2 617 6 508 9 1873
1344 3.24677 6.07462 12.9074 46 43 44 2.29878 3 723 8 925 7 858 2 2533 3 3616 6 992
1345 -1.55719 7.25867 16.0348 25 18 10 0.931873 3 844 8 926 7 862 2 614 6 751 1 506 9 641
2301 7.05914 5.69139 16.212 243 242 247 0.861025 8 1459 6 1298 9 315 1 1711
1346 -1.54093 7.31434 16.0521 131 122 117 0.326956 3 1593 8 930 1 1631 9 1890
1780 -1.64146 -2.45831 15.2801 163 160 152 0.553318 3 2188 7 1208 2 1784 9 863
1351 -1.08802 7.49088 15.4467 149 144 140 2.55647 3 477 8 954 7 227 8 155
2299 -1.68506 -2.17818 15.3124 176 172 160 1.13169 10 2601 6 1267 9 882
1352 2.54295 7.53165 15.4085 164 160 152 1.35759 5 999 8 960 7 871 3 1626
1353 2.51182 7.63757 15.5282 122 116 116 0.5267 3 1634 8 964 7 872
1784 10.6425 3.10194 16.0078 152 151 147 1.70673 8 1394 10 3080 7 1275
1354 1.51291 7.66733 15.5436 91 81 69 1.62444 3 3456 8 965 7 1446 2 2112
1356 9.98006 7.17188 13.8149 151 171 196 2.25422 3 3161 8 975 2 827
1357 2.7122 6.44496 12.1528 176 170 166 1.49081 3 823 8 976 7 1456
1788 6.62555 5.78259 16.1644 162 158 150 0.976769 3 1490 7 1321 2 1118
1359 5.19596 5.83969 10.4615 182 181 192 0.457348 3 1620 8 985 7 2282
1360 10.0296 7.39614 13.7995 62 68 82 0.643018 3 809 8 988 7 998
1569 -1.61167 7.28863 16.0419 128 123 112 1.06567 3 3565 8 2465 7 1887 9 1004
1732 -0.726561 -2.39837 15.2683 198 193 197 0.920245 3 582 7 767 2 472 1 478
1368 -0.863072 6.43784 10.6241 17 4 4 1.23339 3 1692 8 1039 2 859
1577 4.46588 5.61426 11.382 101 100 105 0.409762 3 1566 8 2494 2 1230
2251 -1.88218 3.62353 11.0301 187 175 161 2.74239 2 1973 6 682
1373 10.26 -6.17738 15.2963 22 15 5 1.19245 5 761 8 1105 7 1138
1740 4.71524 5.14486 11.4686 154 142 152 0.591007 8 648 7 844
2082 10.3779 7.25686 16.2816 124 123 121 0.427792 3 3578 7 1840 8 1578 2 1215
1376 -7.01848 -4.73148 15.1237 170 161 146 0.933423 5 2164 7 2291 6 1068 1 1189 9 708
1377 10.3209 -5.20252 15.2543 156 166 178 0.125574 5 1146 7 2280
1680 9.5358 8.91834 15.0802 115 113 111 1.58549 3 351 7 280 2 379
2205 -1.25426 -3.05476 15.2176 239 162 163 1.52304 3 2076 4 2887 10 1358 5 1306 8 1922 3 2084 4 1308 10 1361 5 1313 7 2249 2 1692 6 930 8 1223 1 1341 9 504
1381 -0.0394525 -3.88351 15.1359 138 104 103 0.523627 10 2265 8 1137 6 858 9 1170
1684 -1.34416 6.08932 11.9526 194 194 196 1.11337 8 251 7 296 2 218
1383 2.72053 -3.80162 15.154 164 162 163 0.661973 4 1002 10 2352 8 1152 2 897 1 736 9 318
1384 -1.6148 -3.59359 15.1449 103 48 42 0.408257 3 1252 8 1164 7 1039 2 1604 6 886 9 546
2203 3.56373 -2.60187 15.3344 156 153 151 2.85844 3 1324 4 1264 5 835 8 2046 4 2975 8 2039 2 1705 5 834 6 938 6 1221 9 507
1688 7.55927 6.73249 16.4959 139 135 124 0.511662 8 265 7 305 6 135
1386 2.45597 -3.62235 15.2176 71 56 53 1.87567 4 2757 8 1172 2 1554 9 357 9 1112
1389 -0.737227 -3.4311 15.175 83 20 28 1.03889 5 1240 8 1183 2 766 6 894 9 2086 6 1552
1692 6.51934 5.70507 16.1379 100 93 83 1.00678 3 274 8 1458 7 313 1 169 2 277 9 92
1391 10.8545 -4.4973 15.4754 148 161 187 0.164431 3 1225 8 1199
1392 -0.235004 -3.33357 15.2027 40 12 26 0.597374 10 588 8 1200 6 577
1760 -1.32765 -3.29082 15.157 184 169 175 0.515776 10 906 7 1048 2 1646
1394 10.4878 -3.50864 14.7783 152 176 219 0.536536 3 1972 8 1203 7 2361
2285 0.144467 -3.26941 15.253 174 165 168 0.913168 10 2420 6 1168 2 1633
1397 -0.719113 -3.97197 15.118 150 136 113 0.71795 10 1294 8 1212 9 698
1764 4.77634 5.87708 11.2001 199 195 222 0.71344 8 2560 7 1077 2 1260
1400 10.9063 -3.30362 15.4808 164 182 230 1.945 3 1060 4 1038 8 1239 7 725 3 557
2283 -0.351606 -3.51042 15.2327 171 98 111 0.758751 8 1849 10 2342 6 1146
1401 10.8726 -3.04373 15.5159 127 142 175 1.06938 3 1306 4 675 8 1260
1768 10.9255 -3.34914 15.46 151 173 214 1.40016 3 1062 8 2462 7 1108
1407 10.7978 -2.06571 15.5251 162 174 196 1.39288 3 1358 10 2667 8 1305 7 3284 2 2096
1408 10.7519 -1.43467 15.4114 131 140 168 0.491473 10 2699 8 1314 7 2593
1411 10.939 -0.251844 15.5947 138 148 183 1.77417 3 1371 8 1336 7 2613
1412 11.0265 -0.104304 15.5791 138 156 196 1.14634 10 2820 8 1339
1557 -3.68311 5.25905 12.7729 31 16 16 1.72841 5 318 8 2365
1413 10.9978 0.355087 15.7536 142 147 176 0.856938 4 3114 8 1344 7 2627
2583 -1.81183 7.24969 16.0123 54 49 45 1.44212 3 3569 8 1583 9 1879
1414 12.2162 0.542953 17.5619 163 174 206 1.90565 3 2314 8 1349
1561 9.86768 6.59064 16.1908 74 72 70 0.815983 3 3711 8 2406 7 1754 4 1489 2 2720 5 1495
1419 11.1003 1.54155 15.8544 179 191 223 1.56333 4 1430 8 1365 7 2650
2072 3.49749 -3.28494 15.2193 134 128 128 1.62887 4 2825 2 928 6 1141 1 756 7 3154 9 574 9 1219
1565 4.10315 5.2024 11.8239 155 140 142 1.2619 3 1512 8 2426 7 1790
1421 -4.48488 2.56656 13.1882 203 184 177 1.25115 3 963 8 1383 7 2703 5 1437 2 1070 6 255 1 1558
2066 3.83409 -3.15052 15.2864 192 183 183 1.04453 8 717 2 770 9 1255
1422 -5.19164 3.80247 12.2149 67 38 30 1.83172 3 2450 8 1438 7 2764
1424 4.4212 4.39044 11.6736 144 142 152 0.93749 3 2523 8 1460 7 2800 2 1111
1633 2.50551 7.25882 13.1525 176 171 169 1.05544 5 84 8 195 7 236
1427 -2.18605 4.97717 12.9577 13 2 7 1.95026 3 273 8 1467 7 531 6 392
1428 9.79419 -1.26687 15.8939 129 125 114 2.4334 5 1412 8 1469
1637 -5.65991 6.22234 14.0121 0 0 0 2.15152 4 2475 10 3846
1429 -4.08282 4.79726 12.3526 61 34 24 1.92247 3 1840 8 1476 6 493
1430 4.29503 4.70446 11.6303 93 73 75 1.17234 5 892 8 1492 7 3056
1432 4.68598 4.72367 11.6508 122 116 110 1.77213 3 2583 8 1496 6 2102
1641 -5.55153 4.22689 13.926 66 37 29 1.11031 5 1248 2 2799
1435 -4.1267 5.11871 12.3801 23 20 24 1.62628 3 2651 8 1510 7 1766 2 2704
1436 7.04539 6.45984 16.247 182 179 172 0.500462 3 2156 8 1514 7 1731 2 2731 6 1336 1 910
1645 -0.263635 1.38619 1.54471 140 131 130 0.73221 3 1319 8 2298
1437 7.00344 3.97749 8.4603 34 21 12 0.432218 8 1528 7 1357
2146 -1.83701 6.61218 15.7512 56 52 51 1.76357 3 3664 2 2599 6 2061 1 1509 9 1785
1438 4.07986 5.23339 11.6071 248 228 240 2.29572 3 620 8 1535 7 1813 2 641
1440 -2.6131 5.37468 12.0441 0 3 15 0.711413 3 884 8 1543
1585 4.48618 5.82367 11.3587 44 47 54 0.577421 3 1588 8 2538 7 1435 2 610
1445 -4.08026 4.97401 10.5209 57 61 70 1.2245 3 2124 8 1561 2 2539
1748 10.0613 10.2473 19.1491 80 77 72 3.05398 5 1761 7 894
1448 -4.24875 5.15925 10.5632 55 65 74 1.17874 3 1544 7 1417
2267 3.12825 -3.24255 15.2626 157 156 161 0.685454 7 2412 6 888 9 1258
1453 4.57186 5.69736 11.4076 114 103 110 0.483595 3 856 8 1611 7 1419 2 618
1756 -3.69179 3.1455 12.0762 97 65 52 2.26439 3 2415 7 995
2098 -0.519884 -3.42825 15.1866 75 19 32 0.710173 3 2010 2 1615 6 1154 9 762
1456 4.11795 5.85722 11.0568 14 4 29 1.78087 3 3537 8 1640 7 1448
1537 10.9497 3.81053 16.0377 152 176 210 1.17435 3 959 8 2240 7 1283
1460 3.3522 6.21447 11.4629 12 2 3 0.714354 3 1625 8 1658 2 2131
1461 10.5109 7.86651 14.7484 97 92 98 3.01659 3 1677 8 1668 7 2827
2567 -4.14065 5.957 15.829 172 165 157 0.856404 6 1868 9 1512
1462 9.77944 8.74721 16.3646 60 55 51 1.77743 3 2809 8 1676 2 2247
1464 2.49992 7.18882 12.5911 16 11 25 1.38117 5 661 8 1697
1545 -4.13353 4.56571 12.7493 132 110 97 1.23775 3 2524 8 2281 7 3253
1467 2.70788 6.28649 10.4424 119 104 104 0.655057 3 2752 8 1710 7 1512 2 2293
2056 -3.96751 5.04529 10.6651 37 40 45 0.584526 3 881 2 624
1468 2.79065 6.24419 10.3384 52 30 33 0.352479 3 2753 8 1712 2 1340
1549 3.37429 4.89657 13.1794 233 229 236 0.722442 3 2559 8 2301 2 2871 6 1875
1469 9.37633 -6.05202 14.399 125 116 111 0.951967 5 1134 8 1733 7 2256
2050 7.801 6.04068 16.3085 150 144 132 1.52595 8 848 2 328 6 385 1 456
1470 0.953558 -5.79505 15.2603 193 181 165 0.396046 5 1144 8 1751 7 2274 2 1482
1475 -0.527233 -3.70897 15.1671 153 95 103 0.330765 4 2728 5 1200 8 1814 7 1124 2 912 6 1117 1 763 9 729
1476 2.90265 -3.80162 15.193 141 133 130 0.396278 3 2731 8 1816 7 1682 2 798
1621 2.21875 -3.25104 15.2451 156 153 156 0.451457 3 2043 8 2792 2 1614 9 1297
2106 3.9099 -2.52793 15.1552 196 191 187 1.97912 3 1323 2 1711 6 1679
1478 -0.452418 -3.58422 15.1837 225 156 159 0.327376 3 1984 8 1837 7 1064 6 1136 9 742
1484 2.41975 -3.51818 15.1988 86 81 82 0.319776 10 2411 8 1861 6 1114 1 1200 9 710
1629 2.74745 -2.51395 15.3235 109 99 93 1.44583 5 579 8 1285 3 1022 4 1086 10 848 2 736 6 948 1 493 9 457
1485 4.40966 5.38916 11.4077 31 26 22 0.682138 3 1543 8 1862 7 1849 2 1195
2130 9.80212 8.69651 16.4231 72 64 51 1.42256 5 1636 10 3670 2 2221
1486 3.09813 -3.51037 15.2967 138 137 135 2.32193 3 2008 4 1346 8 1869 2 1561 2 1565 6 868 6 871 9 587
2064 -0.671144 -2.53893 15.2575 167 152 157 0.915167 4 660 7 759 2 731 6 535 9 1993
1491 -0.158372 -3.30028 15.1938 70 39 49 1.3911 4 2821 10 2396 8 1889 2 1626 6 1166 9 2089
2058 4.35604 5.36789 11.3023 70 62 59 0.591392 3 869 2 630 6 466
1493 -0.0724812 -3.28055 15.2076 55 12 20 0.317429 5 1256 8 1898 6 1167
1494 2.39745 -3.29753 15.2206 87 85 86 0.514216 4 2819 8 1907 6 1533 9 1261
1499 -1.62607 5.71717 12.1825 0 2 16 1.53075 3 1558 8 1947 7 1872
2216 -1.3498 -3.06917 15.205 91 15 24 1.33007 8 294 6 168 9 258
1500 2.2135 -3.00301 15.2515 53 41 39 0.608546 10 2526 8 1959 6 1612 9 532
1709 3.04752 4.6636 13.1801 40 14 20 0.279656 3 453 7 475 2 323
1501 -1.5555 -2.85407 15.2294 32 25 25 1.76359 5 1329 8 1960 7 3141 8 1968 2 1721 6 1225 9 1067 3 2132
2210 -1.95122 7.42761 16.401 45 39 39 0.995939 3 131 6 60
1502 -0.276364 -2.90032 15.2229 87 20 29 0.537266 10 2485 8 1964 7 2474 2 1701 6 1216 9 1352
1504 10.3321 7.22104 16.0838 132 130 131 0.0518513 4 2008 8 1969
2080 4.74677 5.29873 11.5172 177 189 203 0.573837 7 1829 2 1172 6 991 1 625
1507 -0.509698 -2.7598 15.3929 130 38 49 1.57047 4 1260 8 2007
1508 -1.09709 -2.67377 15.2335 140 136 141 0.333411 3 2155 8 2008 7 1195 2 977 1 2095 9 492
1653 -1.55642 -3.5765 15.1602 203 120 131 1.66731 4 2752 10 1311 3 1987 10 2301 8 1825 7 2360 6 1526 9 1327
1509 3.64212 -2.78966 15.3075 170 169 175 0.384341 4 2942 8 2013 6 1961 9 785
1510 -0.151195 -2.68813 15.2548 45 2 17 1.4898 4 2969 8 2014 2 1728 6 1712 1 1372 9 844
1512 -0.750471 -2.61956 15.2652 139 128 134 0.595281 4 2979 5 1724 8 2020 7 2507 2 2779 1 1389 9 852
1515 -1.01742 -2.49386 15.2349 77 77 79 0.432569 5 1376 8 2040 7 2525 6 631 9 860
2168 -0.942953 -2.1124 15.3315 145 147 146 0.247451 3 2229 2 2787 6 1783
1516 10.6236 7.45356 16.7269 143 141 144 1.14719 3 3574 8 2048 7 1846 2 2216
1661 -2.53373 4.98922 13.2216 168 162 162 1.1991 3 148 7 85 2 166
1517 3.16924 -2.48708 15.3399 150 148 148 0.438042 10 1424 8 2057 2 1729
2162 -4.47678 6.06996 16.0583 27 18 12 1.49028 10 1958 2 2734
1518 3.04023 -2.47351 15.3669 149 138 136 0.338437 4 1093 8 2059 7 764 6 617 1 1361 9 832
1520 -1.6435 -2.25511 15.2733 154 150 139 0.406646 10 2588 8 2075 7 2557 6 1058 9 2120
1601 0.885751 8.19561 14.8019 182 178 179 0.969659 3 2828 8 2674 7 1498 2 2297
1523 3.89623 -2.32457 15.3384 85 84 90 1.41151 4 3832 8 2092 6 1731 9 842 9 2035
1524 10.4922 -2.37647 14.9271 151 167 203 0.504486 3 2187 8 2102 7 2536
1605 2.70302 6.31463 10.4524 40 15 19 0.540425 3 2769 8 2708 7 2932
1526 3.52542 -2.1515 15.4006 142 134 132 0.629945 4 3055 8 2118 7 2572 2 1781 6 1249 1 1393 9 859
1528 11.1199 0.345517 15.7993 148 156 192 1.92347 3 2300 8 2153 7 2623
1609 10.0738 7.26446 16.2765 126 124 125 1.15368 5 1232 8 2739 7 1843 2 2459 10 2334
1531 10.5852 6.76767 14.8652 161 214 245 1.76665 3 850 8 2181 7 2477
1613 3.92382 6.2648 11.4339 46 48 47 1.18485 3 1639 8 2748 7 2405 2 1288
1533 10.829 2.18565 15.752 149 173 208 1.63082 3 2362 10 2998 8 2190 2 1044
1534 -5.46456 2.29352 12.599 54 33 37 1.17767 3 2374 2 2194
1536 -3.04537 3.36672 13.4211 74 40 30 1.27386 3 2418 8 2239 7 2727
1538 5.36176 3.59316 13.0808 164 152 156 1.41831 3 1427 8 2247 2 1935 6 1823
2486 -0.952272 -3.16997 15.1759 173 117 128 0.130435 6 1192 1 2088 9 1433
1543 -4.15374 4.5418 12.7189 135 108 97 1.1585 3 2520 8 2279 2 2040 7 2799 1 863
1544 -2.75392 4.76168 13.475 66 38 33 0.252711 3 1462 8 2280 2 1117
1546 2.66698 4.16177 11.3867 29 10 9 1.88895 3 2498 8 2282
1551 -2.26818 4.89898 12.6842 174 167 161 2.12206 3 3782 8 2311 2 1131
1554 10.9334 5.98516 15.9843 172 194 235 0.781502 3 2655 8 2328 7 3243
2438 -0.403048 -3.73308 15.1724 37 7 12 0.0401148 3 3728 1 1213 9 724
1559 4.83744 4.95882 11.6021 121 119 125 0.80597 3 2650 8 2393 2 2272
1562 7.59217 6.66164 16.2589 35 31 20 0.542776 3 3697 8 2411 7 1772 2 2693 6 1355 1 926
1567 4.72516 5.24422 11.5472 70 72 87 0.959457 3 1521 8 2449 7 1371
1568 2.37974 -2.84175 15.2618 29 20 25 2.1806 4 666 8 2464 7 747 7 1095 6 924
1570 -3.95505 4.63241 12.3587 176 164 150 1.21814 3 2538 8 2468
2252 4.93548 4.93073 13.1984 235 254 255 0.755933 2 2056 6 703 1 453
2390 6.72899 6.33022 16.3204 132 123 114 1.38683 3 2509 8 1500 2 1584 6 699 3 2397 7 3235 9 401
1575 -1.16313 7.38954 16.013 118 112 96 0.695103 3 1185 8 2482 6 958
1576 4.40951 5.57623 11.3476 45 45 45 1.43931 5 2020 8 2490 7 1405
1578 4.54149 5.65718 11.3809 19 29 30 0.969628 3 1571 5 1975 8 2501 2 2542 6 851
1583 4.57761 5.79059 11.3989 36 41 55 0.502987 3 1580 8 2529 7 1932 2 1247
1584 -3.11012 5.02526 10.8378 35 41 53 1.45132 3 1166 8 2533 2 1202
2470 -1.335 7.50116 15.8783 86 76 65 0.564965 7 1935 1 1701 9 1480
1591 4.26416 5.86258 10.4088 129 171 209 0.415016 3 3844 5 2223 8 2619
1592 -1.65951 6.11046 11.0285 1 2 9 1.52301 3 479 8 2620 7 3290 2 513
1600 0.970419 8.3302 15.1621 127 123 124 1.42735 3 2825 7 2905 2 1343
1602 4.34637 6.07392 10.2633 69 78 85 0.830394 3 2845 8 2678 7 2886 2 2237
2550 2.8112 -3.55874 15.2243 177 174 176 0.175038 6 1104 9 1113
1607 2.58844 6.81494 11.4387 22 8 10 2.33111 3 2813 8 2718 7 2933
1608 -1.41775 5.87507 11.8361 46 49 64 1.20015 3 3582 8 2738 7 1939
1610 -4.98507 4.76562 11.9273 68 41 28 1.61513 3 920 8 2740 7 837
1615 2.03241 4.88709 15.1412 175 170 167 0.891507 3 2959 5 1752 8 2764 7 1308 2 1103
1632 4.76173 6.49476 10.8018 32 12 14 1.12309 8 1033 2 2840
1634 4.15206 5.97629 11.4444 20 0 0 2.01557 3 311 8 205 7 228 2 258
1638 9.06989 -1.20693 13.2399 113 112 108 0.366732 3 1002 7 780
1640 -3.7682 6.11474 10.094 162 150 136 0.216107 3 2747 2 2327
1642 -2.80848 4.52064 13.5865 59 24 22 0.315312 3 1764 8 2274
1647 -1.37767 -3.78849 15.084 166 95 113 1.65094 3 1081 4 994 10 567 5 632 3 2730 5 788 8 1145 7 1046 7 1110 2 787 6 870 1 1055 9 567
1648 3.91871 -3.37406 15.2522 134 128 130 1.63548 3 2023 4 2805 5 1207 8 1210 3 2024 10 4448 5 2171 7 3160 2 1582 6 1124 1 1184 9 585 9 700
1650 -1.12286 -3.20367 15.1997 178 114 126 1.42147 3 2046 4 2835 5 1289 8 1900 3 2053 10 1349 5 1294 6 1189 1 1310 1 1316 9 1424
2534 3.92754 -3.19093 15.3268 105 87 81 2.04971 3 1295 4 1307 10 606 5 375 8 1229 7 1128 2 931 4 2850 1 536 4 2856 6 1542 1 1214 9 1241
1655 11.0527 -0.596841 15.722 203 203 236 1.50961 3 50 7 25
1656 9.75596 5.89388 13.7126 173 203 253 0.481308 8 22 7 35
1658 -3.80463 5.30231 12.3279 2 8 22 1.4336 8 51 7 66 2 70
1659 3.49838 5.91835 12.7265 166 167 187 0.348646 8 39 7 68
1663 0.398606 8.38878 14.7602 177 171 171 1.07215 3 164 7 116 2 143
1667 11.3532 2.18971 16.047 193 216 250 1.39859 3 139 7 188
1669 4.04798 5.63906 11.6123 118 119 105 1.74756 7 221 2 121 8 201
2327 -0.173744 -3.12077 15.7065 111 35 43 0.828157 2 1687 6 1637
1670 5.34948 6.40388 10.6994 69 54 60 0.406567 7 224 2 141
1671 5.06606 5.90542 11.0247 178 183 218 0.730573 8 207 7 230 2 129
1672 -4.25429 5.71835 10.513 51 55 66 0.215253 7 232 2 127
1675 0.929862 8.17785 14.6504 190 188 189 0.64855 8 219 7 240 2 207
1677 1.7515 9.19178 14.7888 49 30 23 0.261956 3 321 7 251
1678 2.04767 -3.44539 14.9924 170 152 132 1.2774 3 259 7 265 6 154
1683 2.10137 7.96333 16.0227 178 169 160 1.04785 3 369 7 293 6 182
1685 4.15182 5.56068 11.642 37 2 1 0.48638 8 258 7 299 2 224
2407 4.52586 4.7645 11.4503 61 37 5 0.281138 6 123 1 83
1686 -3.6294 4.72501 10.0578 11 17 29 1.596 8 260 7 300
1691 -3.1972 5.34576 13.611 164 155 148 1.91885 5 153 8 193 7 311
1693 -2.17019 6.32231 9.88867 144 135 126 0.414889 3 358 7 347 2 243
1694 -2.80048 6.26587 9.62709 116 107 98 0.981948 3 354 7 353 2 241
1701 2.71581 6.72218 12.2607 20 10 11 1.06428 3 367 5 215 7 432
1712 7.62036 6.37752 16.3012 54 49 43 0.444579 8 486 7 492 6 390
1715 4.85208 5.87689 11.5576 55 22 39 1.37404 8 541 7 532 2 350
1717 6.62128 6.15369 16.1583 151 143 129 0.450351 8 480 7 543 2 420 6 388 1 263 9 156
2311 -0.961295 -3.85741 15.1719 98 96 97 1.77131 2 1558 6 1425 1 1208 9 721
1718 3.90612 6.3118 11.4038 9 4 8 1.25377 8 431 7 548 2 360
1719 4.15552 6.06975 10.2256 0 81 108 0.75974 5 170 7 553 2 246
1723 1.70913 9.19364 14.575 35 16 9 0.346388 3 654 7 588
1725 10.9867 -3.25263 15.5406 150 176 228 0.79504 3 563 8 574 7 632
1726 4.48744 5.8332 10.3152 179 196 215 0.843905 8 432 7 691 2 390
1731 -0.584993 -2.40735 15.2704 160 157 164 0.626434 8 742 7 766 6 576 1 480 9 1978 10 2577
1733 10.748 -0.372811 15.5987 172 192 227 0.700559 4 3100 10 2802 7 786
2391 -1.02908 -3.33432 15.1979 164 156 158 2.28523 3 1272 4 2806 10 585 4 691 5 611 8 700 7 720 2 1639 4 2814 5 1262 8 1882 6 1177 1 512 9 1403
1734 10.6708 0.966488 15.3384 166 177 207 0.748355 8 462 7 792
1739 4.44099 4.58815 11.5151 81 51 59 0.681386 3 928 7 833 2 563 6 731 1 439
2089 4.74228 5.62029 11.4574 140 162 175 0.540855 3 3633 2 1446 6 1032
1742 9.98627 7.28495 16.0239 184 179 186 0.484257 3 842 7 855 2 621
1747 -0.829704 6.32322 11.4251 128 118 116 1.50733 3 3450 7 890 2 557
1750 -4.01298 6.03468 10.606 40 44 56 1.16755 3 1168 7 897 2 1319
1755 -3.09498 6.17382 9.70303 125 115 105 0.668204 3 787 7 923 2 846
2105 9.65872 -2.49747 15.5892 147 141 127 1.10586 3 3752 8 2096 2 1672 1 1228
1757 6.04492 9.22377 14.4269 157 160 177 0.717894 3 1838 7 1001
1758 10.5159 -5.64222 15.1113 137 150 166 0.712421 8 638 10 949 7 1012
1763 10.3837 -5.87804 15.0415 233 245 244 1.62245 8 1112 10 563 7 1076
1765 -0.214845 -3.60202 15.0564 54 18 22 0.427708 10 2317 7 1098 2 918 6 1480
1766 -7.4009 4.75382 12.8097 228 228 216 0.632316 5 1759 7 1099
1770 10.8748 -4.50252 15.7196 155 167 188 1.15493 8 1770 7 1133 2 879
1772 10.846 -4.60577 15.6631 152 164 186 1.29519 8 1146 7 1157 2 877
1774 2.37736 -3.03122 15.2444 151 150 155 0.230302 10 874 7 1178 1 514
1778 10.8444 -2.69212 15.5052 169 184 223 0.810156 3 1160 4 2953 8 2058 7 1199
1779 -1.03301 -2.59527 15.2963 98 94 95 0.672478 10 2543 7 1204 2 982 6 627 1 821 9 489
1781 -0.950143 -2.17855 15.1524 116 111 114 0.448118 3 1345 7 1223 1 1426 9 1961
2375 3.59073 -2.85217 15.3258 97 97 107 0.205788 8 2002 6 2279 1 1286 9 1394
1782 10.9523 0.490525 15.9409 165 188 222 0.936975 8 1348 2 706
1787 11.0955 4.99976 16.3095 169 198 240 1.74471 8 1443 7 1302 2 1091
1789 11.0974 6.30682 16.3508 164 192 232 2.0446 3 899 10 1841 7 1339
1790 4.81931 4.98962 11.6972 247 237 255 0.903785 3 1503 8 873 7 1350
1794 4.41148 5.44211 11.3452 98 96 97 0.975778 5 949 8 1582 7 1393 2 627 6 802 1 604
1799 -0.949071 7.46995 15.8747 186 182 181 0.68408 8 2506 7 1425
1800 4.77713 5.89354 11.6379 65 71 88 1.71473 8 1624 7 1428 2 612
1802 -0.657082 6.28652 11.1663 129 118 114 0.775127 8 993 7 1480
2254 4.35764 7.00103 16.5723 120 117 126 0.780133 7 1059 6 722
1807 0.482064 8.40183 14.9096 193 187 187 1.14926 8 1709 7 1522 2 2332
1808 0.738165 8.21343 14.3425 183 183 184 1.47615 8 2710 7 1528 2 2346
1810 1.30709 8.41675 14.3853 85 80 91 0.274006 3 1097 7 1540
1815 -2.4664 6.23184 9.8433 137 127 117 0.624514 3 1704 7 1555 2 1381
2182 9.87831 7.22444 16.3988 111 104 94 2.01916 3 3604 4 1508 10 1113 2 1206 5 545 3 241 4 196 10 103 5 91 8 152 7 193
1816 -2.9066 6.19099 9.70764 136 127 117 0.673505 3 1708 7 1560 2 1385
1818 8.25498 6.7424 10.2033 16 2 0 1.08844 3 1200 7 1573
1823 -2.24372 6.48269 9.72988 102 88 88 0.48917 3 772 7 1593 2 830
1824 -3.49608 6.25692 9.29963 147 139 126 1.11798 3 2935 7 1596 2 2490
2508 0.0480445 -2.16758 15.3045 189 184 174 2.14146 3 448 4 424 10 289 8 555 3 2222 10 2631 5 852 4 3069 8 2098 7 2565 2 1216 6 1261 6 1263 1 251 9 277 9 872 9 1964
1826 -2.88362 6.23816 9.63918 125 117 108 0.696857 3 2865 7 1699 2 1393
1831 7.574 6.38914 16.1639 140 135 129 0.391183 8 2370 7 1725 1 1526
2134 -0.960721 6.35378 10.6494 126 118 112 0.0736628 3 2757 2 2312
1832 6.73079 6.26872 15.7083 148 142 128 0.373109 8 1513 7 1730
1834 -1.52039 6.34905 16.114 130 120 118 1.48509 5 2080 7 1742 4 2083 2 2870 9 1670
1839 -1.98134 6.83841 16.4668 45 49 59 2.62487 10 4205 7 1816
1847 3.28202 6.07246 13.053 35 29 41 0.285572 3 3636 7 1864
1848 -3.28458 5.01949 10.535 0 5 17 1.14054 3 2050 7 1866 2 1220
1850 3.39039 5.67073 11.6389 152 142 133 0.110656 8 527 7 1882
1855 2.82312 6.07604 12.4326 73 55 52 1.10592 3 3847 7 1903 6 1738
1856 3.37919 5.75921 11.6039 75 54 63 1.92258 7 1904 2 2024 8 1605
1858 9.91151 7.85443 16.4348 114 110 98 0.511072 3 3484 7 1913 2 1251
1863 -1.35964 6.00181 11.8734 10 12 21 1.8779 8 2535 7 1951 2 2077 6 813
1864 -0.460231 7.69196 15.8167 96 91 85 2.42746 3 3143 8 1633 7 1957 6 610 2 2812
1865 2.26636 7.93946 16.3222 115 103 86 2.3342 3 3146 8 2552 7 1958 1 1784
1866 4.84154 5.87246 11.0791 64 112 170 0.66428 8 2813 7 1964 2 2079
2594 -0.727721 -3.69771 15.1264 167 133 126 2.06504 5 1201 6 875 3 1968 3 1966 4 2725 10 1310 8 1809 7 2341 7 2344 2 1571 2 1574 6 1116 1 1224 1 1226 9 734 9 1568
1885 2.49155 -3.4178 15.1882 185 181 182 1.9924 3 1269 7 2391 6 881 1 300 9 221 9 722
1888 2.31205 -3.28804 15.2249 170 167 168 0.286565 8 1906 7 2402 2 1607 1 772 9 529
1890 3.21527 -3.20718 15.2388 113 101 103 0.627116 4 2846 7 2416 9 1575
1895 2.4753 -2.90928 15.137 29 28 33 0.883928 3 2114 7 2473 6 1623
2198 -0.789744 -3.64273 15.1549 100 9 18 1.78425 4 3877 10 2295 7 2348 2 1585 4 2742 10 2303 8 1822 1 1238 9 1267 9 1286
1896 3.188 -2.88235 15.2765 141 144 149 1.35557 4 2925 7 2480 6 1625 1 791 9 1392 10 4459
1898 3.76166 -2.80837 15.2931 154 153 158 0.37594 3 1313 7 2492 1 790 9 527
1903 0.227621 -2.47933 15.4024 148 140 134 0.86699 4 3003 8 1054 7 2532
1904 4.00325 -2.40741 15.1747 181 177 165 0.745101 8 2072 7 2535 6 1711
1906 3.37631 -2.36544 15.3844 43 41 42 0.354457 8 2084 7 2550 6 625
1911 9.69613 -0.129752 15.7116 149 142 126 1.6004 10 2811 7 2617 2 1845
2278 4.74482 5.46028 11.4795 138 150 180 0.783505 2 1443 6 1018 1 607
1912 10.4075 0.207298 14.5887 204 218 254 0.550127 8 2804 7 2622
1914 9.74103 0.842909 15.8432 134 131 126 0.499544 10 1603 7 2640
1919 -5.15229 2.61434 12.9598 200 180 179 0.850354 3 2920 7 2705 2 1916
1923 -3.2932 5.27107 16.0827 69 39 28 1.62885 10 1855 7 2784
1925 8.62153 3.98089 10.7244 133 120 109 2.26941 3 2484 7 2788 2 1981
2584 -0.530311 -2.18684 15.2788 164 153 159 0.932629 4 3059 9 1962 5 1400
1931 6.75239 6.00047 16.304 125 116 107 0.098187 8 2312 7 2824
1933 9.87255 8.69982 16.4621 102 93 83 1.27947 4 2218 5 1637 7 2831 2 1316
1934 4.03736 6.16137 10.8273 17 77 103 1.05243 3 3284 8 2641 7 2846
1939 -2.39492 6.10224 10.4509 78 76 73 0.719321 3 1657 7 2914 2 567
1941 4.1816 6.37021 10.5447 45 30 33 0.798839 8 1715 7 2924 2 1341
1942 5.47921 6.32046 10.3553 239 227 242 1.11015 8 2728 7 2929 2 1345
2151 7.53835 4.30923 8.14074 82 66 55 1.15242 7 1402 2 2643
1947 0.808879 8.23228 14.2157 214 213 221 1.04274 3 2918 8 2732 7 2957
1949 -1.73124 6.32834 10.2087 133 128 124 1.92294 3 2815 7 2980 2 2352
1950 0.604333 8.34071 14.0827 184 180 179 1.88937 3 2964 7 2981
1971 -1.62485 7.3184 15.8258 114 105 100 0.388517 3 3548 7 3208
1974 4.4804 4.7436 11.4893 78 63 30 1.69837 3 2595 7 3236 2 1129 6 744
2568 -3.53456 5.94876 15.9061 180 172 169 1.09697 1 2006 9 1516
1979 2.68644 6.66089 12.0768 25 13 13 1.71559 5 1958 8 2630 7 3289
1981 4.82304 5.88604 11.0236 117 125 152 1.42053 3 1186 5 1777 4 735 10 461 5 477 8 973 7 1973 2 2081
1982 4.49946 5.67106 11.4102 63 68 77 0.862146 3 631 7 867 4 746 10 2070 5 719 8 944 2 531
1987 -1.61219 7.10915 16.02 129 120 115 0.901921 8 150 7 220 2 176 3 239 6 122 1 95 9 109
1989 -4.53516 4.77704 11.8612 132 127 123 2.28435 8 126 7 274
1990 -3.87719 4.94381 12.2382 152 147 144 0.987312 8 1498 7 495
2135 9.94873 7.43518 16.4712 123 115 102 1.34658 3 1592 8 1585 2 2351
2345 -0.348638 -2.53477 15.3941 164 153 159 2.10561 2 1754 6 1742 9 1992
1995 10.4947 7.2801 16.3466 72 68 64 1.67526 4 1511 8 1919 3 1577 4 2003 10 4629 7 1382 2 2556
1997 -4.23386 5.87924 10.4213 3 8 24 1.43158 3 246 7 235
2063 10.961 -0.76376 15.9205 176 196 229 0.995378 8 1331 2 715
1998 1.53721 9.11027 13.2964 64 47 40 1.31847 3 1154 7 373
2003 -3.8928 6.35067 10.9644 100 93 88 0.780935 3 1666 2 1336
2006 -0.235569 8.53437 17.5166 184 176 170 0.575822 8 2559 7 1975
2215 0.0695484 -3.51211 15.1811 162 90 107 0.483829 10 206 6 160 1 205
2011 -3.48791 5.40837 16.1588 102 69 59 0.186135 4 1985 7 2791
2013 2.2248 -3.54195 15.143 44 38 35 1.85543 4 2778 8 1051 7 2366 10 2398 5 1197 6 1108 6 1947 9 711
2079 -4.23668 3.27243 8.53741 117 107 95 0.2807 7 2795 2 1109
2014 4.46878 5.56848 11.4174 90 93 96 2.05901 3 861 8 933 7 1870 8 1587 4 2167 5 2038 2 620
2019 2.22748 -3.17317 15.2313 183 181 181 1.753 3 2054 4 2853 10 1379 8 2793 3 1057 10 601 5 507 8 1224 7 732 2 763 2 940 5 804 6 575 1 521 1 778 9 474 9 549
2022 -0.96927 -2.8801 15.2213 97 18 31 1.31923 3 570 4 668 7 393 3 2117 10 2470 2 2091 9 183
2167 -0.145038 -2.40014 15.2885 205 194 196 0.454806 7 3133 2 2782 9 1981
2029 -0.277734 -2.78256 15.2392 113 29 44 1.77023 3 1311 4 1281 5 836 8 1984 7 2493 3 2139 10 2524 8 1990 2 1719 6 1223 1 1367 4 1274 9 834 9 2046
2095 -0.513313 -3.94356 15.1348 197 190 179 0.408157 4 2682 2 1525 1 1179
2030 -1.45155 -2.80993 15.2476 111 106 115 1.98874 3 2136 10 2482 5 1339 8 1981 7 2489 4 1068 10 1380 5 395 7 2485 2 1727 6 1229 9 1693 9 2033
2035 -0.878481 -3.9839 15.1461 186 171 150 1.77984 3 1925 4 2669 10 1289 8 1769 8 1772 3 1919 8 1202 7 2301 2 1529 1 1186 9 1179
2037 0.0667097 -3.50956 15.2581 95 40 54 1.38262 4 2792 10 2359 7 3163 10 2358 5 1227
2038 2.49584 -2.10953 15.3599 150 146 147 1.7432 10 2650 8 2623 4 3063 8 2116 7 2578 6 637 1 1406
2119 9.95319 2.07098 13.6517 222 229 251 2.23559 3 968 7 599 2 1881
2043 0.36793 -2.27922 15.4725 153 139 130 0.470871 3 143 2 114 6 73 1 72 9 54
2045 0.425696 -3.85837 15.1794 155 142 123 0.93739 7 659 8 122 2 119 6 61 1 79
2111 -0.783263 -2.5951 15.5341 29 10 14 2.18095 7 2519 2 1764 8 1352 6 628
2046 10.4069 7.66847 15.9036 211 213 237 1.57621 7 422 2 221
2049 -1.26258 -2.30513 15.2586 196 197 199 0.363339 8 361 2 320 6 261 9 228
2051 -0.407394 5.76807 15.2936 178 172 174 1.89291 3 2648 2 330 6 249
2052 -1.64958 5.39996 10.6248 0 1 6 0.459643 3 630 2 351
2053 -1.74325 7.34197 16.0017 32 25 22 0.786364 3 525 2 352 6 237 1 271 9 235
2054 5.73294 7.93255 13.1353 135 132 143 0.224915 7 444 2 378
2059 6.75896 6.02749 16.2085 163 151 137 0.773248 7 1329 8 1479 2 668 6 615 1 399 9 413
2060 6.76108 5.83016 16.1651 166 160 148 0.886751 7 1322 2 674 6 383 9 289
2061 10.8447 1.3463 15.777 173 189 222 1.63346 3 1379 8 2162 2 703
2067 10.9195 -4.26512 15.5576 191 205 237 1.34686 4 1332 2 808
2068 9.77325 6.87094 16.1523 100 90 80 1.73815 7 1810 2 829
2069 4.80882 6.08361 9.81555 39 21 21 2.30932 7 1520 2 863
2070 9.64983 -4.14556 15.5752 159 157 136 1.32609 8 1151 2 886 1 1541
2074 -0.00872064 -3.3898 15.1811 134 92 96 0.139828 7 1185 2 937 9 542
2075 11.0431 1.78628 16.0185 169 184 222 1.53536 4 3132 8 2174 2 1039
2076 11.0179 2.7368 16.035 215 236 255 0.171885 3 2384 8 1382 2 1057
2077 10.9823 2.81869 16.0528 180 209 241 1.46515 8 1386 2 1058 7 2681
2078 11.0829 2.91986 16.2427 177 206 240 1.87791 3 1416 7 2686 2 1060
2081 -4.02396 4.84055 10.7906 14 17 22 0.378799 3 905 2 1177
2085 2.9855 6.07533 12.5499 63 48 48 0.00834105 7 1416 2 1237
2086 -1.70078 7.4723 15.6331 195 190 186 2.05265 3 1616 2 1264 6 769 1 639 9 465
2090 -5.61645 -6.64466 14.5329 164 153 135 0.789492 8 1725 2 1464
2091 -0.528627 -3.26723 15.1932 111 49 52 0.157412 5 1267 2 1466 6 1953
2092 -7.44339 -6.70701 14.4217 221 217 205 0.575643 8 1086 2 1474
2094 3.16833 -3.89254 15.1143 117 105 105 2.20291 4 2693 2 1503 6 852
2101 2.53845 -3.07369 15.2728 163 165 166 1.42169 10 2510 2 1638 6 1592 1 1273
2107 -0.377155 -2.82478 15.2219 167 80 89 1.52228 4 2937 10 1391 2 1713 6 942 9 2058 9 2062
2109 2.39219 -2.41368 15.343 166 137 129 0.545626 3 2838 2 1748 1 490 5 1359
2112 -0.727633 -2.33662 15.2883 165 165 163 0.477729 5 1389 2 1792 6 1255 1 2099
2113 -1.38266 -2.33581 15.276 187 187 185 1.56416 5 1398 10 2578 2 1795
2116 0.188521 -2.07193 15.403 130 128 126 0.369134 7 2581 2 1819 6 648
2117 4.61626 4.68824 11.5984 92 86 101 0.492028 3 3781 2 1850 6 2101 1 921
2122 -3.41989 4.65793 16.0633 174 164 152 0.824025 10 1842 2 1975
2124 -1.5124 7.4323 16.024 126 116 106 0.748822 8 2491 2 2058 9 1025
2125 -1.95399 3.57965 5.4513 239 237 224 0.397275 3 2806 2 2074
2127 6.78378 5.64343 15.8771 156 152 145 0.403174 3 2588 2 2106
2128 9.06545 8.45955 16.3918 125 121 110 0.0644421 3 3188 2 2168
2129 9.809 8.56361 16.5127 77 69 58 0.668117 4 2184 7 2288 2 2181
2131 1.2629 8.44138 16.0726 152 143 134 1.31593 3 2771 2 2234
2132 -0.196111 8.45235 16.1213 193 184 177 0.461168 8 2624 2 2241
2133 6.80854 6.08688 16.1258 25 16 12 0.435126 3 2857 2 2262 1 452
2136 11.8074 7.53462 16.3693 38 17 3 0.337611 10 4622 2 2357
2137 5.65859 6.99193 11.3354 161 160 164 1.61567 3 2886 7 1539 2 2371
2138 -0.673019 8.3283 15.6374 133 124 119 0.218535 8 2639 2 2450
2142 10.511 7.29712 15.6641 150 146 146 0.285424 3 3547 2 2551
2143 10.5992 7.28595 16.2947 86 85 81 1.84066 8 1971 2 2555 7 3212
2144 4.43575 5.40716 11.3272 8 4 7 0.41195 3 3674 2 2577 6 1674 1 1009
2150 -2.13027 6.66691 16.2137 58 54 53 1.78164 10 4200 2 2634 1 1846
2153 7.57519 6.69548 16.2215 148 144 135 0.278367 8 2414 2 2682 1 927
2155 -3.90803 5.16519 12.4833 14 5 1 2.0786 3 2653 2 2692
2156 -4.12181 5.24415 12.6848 111 94 84 0.605306 7 1770 2 2694
2157 -2.04567 6.28931 15.9745 5 1 1 0.790457 2 2698 6 1340 7 1749
2158 -1.76152 7.15676 15.9846 5 0 3 1.16192 3 3575 2 2700 6 2154 9 1867
2159 -1.83714 7.0842 16.0976 8 4 3 1.2674 3 3605 9 1844
2160 6.86027 6.51095 16.3024 104 97 89 1.29402 7 1743 2 2728 1 913
2161 6.79112 6.40532 16.1481 155 148 138 1.45565 7 1729 2 2732 6 1895 1 907 1 908 9 1054
2163 5.79187 4.9457 11.3201 149 140 131 0.587205 7 1773 2 2739
2164 3.64875 -2.61947 15.365 172 167 164 1.12816 4 3841 2 2771 6 1673 1 1326 8 1373 9 197
2165 -1.21578 -2.75309 15.1564 163 143 143 0.755801 4 2947 2 2775 9 2026
2166 -0.221661 -2.6793 15.2148 78 13 21 0.437887 8 2009 2 2776 6 2045 9 2024
2169 4.60532 5.76254 10.0629 88 77 76 0.889199 3 3476 2 2817
2171 -1.51284 6.17586 16.1124 96 84 72 0.889095 10 4356 2 2853
2172 -1.80186 6.302 15.9196 67 62 59 0.967834 3 2288 2 2858 6 2142 9 1668
2173 5.05301 6.01879 12.1047 111 73 70 0.533545 3 3840 6 1921
2174 8.95845 8.64467 14.1591 96 92 89 0.881182 7 3156 2 2881
2175 9.87249 7.32765 16.42 59 54 48 1.15212 5 544 8 1575 3 846 4 1208 10 1109 2 625
2176 10.7887 1.14055 15.6592 90 99 117 1.48947 3 2320 7 1261 10 1619 8 1359 2 704
2177 3.90611 -3.58102 15.2273 124 118 111 1.86449 7 711 10 1362 2 901 3 1990 4 1252 5 784 8 1180 7 2362 2 428 6 436 1 312 9 319
2178 -1.26119 -2.56918 15.3098 79 73 75 1.78446 8 1270 2 1762 4 1084 6 1745
2179 3.37383 4.89902 13.3096 6 3 5 1.04726 3 2553 2 2103 4 3495 5 882 8 2300
2181 -1.52435 -3.31672 15.1733 71 69 73 2.43906 4 2815 10 2355 5 2181 10 4442 8 1877 2 1642 9 1411
2183 1.33195 8.30318 13.4083 2 0 3 2.58543 7 59 2 154
2184 3.15146 7.06661 13.8359 66 53 70 2.79331 7 1972 2 354
2185 7.44526 1.65136 10.4303 161 154 146 2.69082 7 795 2 1876
2186 10.1277 2.49802 14.0313 208 214 240 2.0441 7 157 2 1886
2187 -6.41042 2.91622 15.2863 50 31 24 0.815004 8 1385 2 1921
2188 -5.17949 3.57921 12.1941 71 45 32 1.08251 3 956 2 1965
2191 5.48834 6.05204 12.3617 133 117 117 0.123995 3 3584 2 2648
2192 -3.24176 5.19262 13.1147 69 47 36 0.390752 3 3786 2 2738
2193 -8.25407 7.28617 20.9109 130 104 88 0.543785 7 2893 2 2741
2195 -1.61175 -3.75781 15.177 158 132 133 1.30384 4 2715 8 1795 4 3881 7 1181 2 915 6 2266 1 771 9 740
2196 -0.523993 -3.3811 15.1646 133 76 88 1.608 3 2018 4 2800 8 1871 7 2389 2 1621 3 2019 4 2802 10 905 5 1246 8 1191 7 2393 6 899 6 1158 1 1275 9 767 9 1609
2197 -1.13002 -2.31188 15.2878 158 156 158 0.861648 3 2207 4 3031 7 1219 2 991 4 1103 7 1687 1 827 6 529 9 482
2199 10.9461 1.61993 15.7931 128 140 176 1.33389 4 1147 8 789 2 1871 3 1387 10 732
2200 3.65885 -2.69391 15.3468 179 177 176 2.43267 3 1317 4 2960 8 1267 4 2967 8 1362 2 1699 6 931 6 934 1 1312 6 1659 9 515 9 521 9 796
2201 3.96034 -2.43959 15.3574 159 159 158 2.05356 3 1021 4 1094 10 629 5 581 8 745 7 765 4 3007 10 2639 5 1344 2 1734 6 545 6 1238 1 346 1 1354 7 2541 9 262 9 499
2202 -1.37652 -2.63115 15.2477 179 178 179 1.29324 3 1318 4 1285 10 868 5 845 7 2509 2 981 4 1334 8 1261 9 856
2206 -1.28509 -2.44638 15.2616 172 165 170 2.09423 3 3751 4 3011 10 2564 2 1779 4 3006 10 2557 6 1251 9 862 9 866
2207 -3.4434 2.12532 14.0775 134 117 107 1.51995 3 2360 8 2807 2 1309 3 2357 5 1420 8 2186 7 2669 6 657
2208 3.64178 -3.72906 15.3392 176 172 168 1.87694 4 1316 10 1346 5 1170 2 1522 2 796 6 830 8 1170 1 554 9 352
2209 -0.996198 4.86873 15.0005 135 125 113 0.503688 2 47 3 61 6 29
2211 -1.39205 7.41247 15.8505 81 69 57 1.28982 2 219 6 78 1 98 9 86
2212 -1.61614 6.17594 16.0256 120 110 108 0.711782 2 107 6 83
2213 -3.70466 5.52742 14.6351 153 152 150 0.823198 2 237 6 114
2217 3.57556 6.0865 12.7403 165 171 182 1.15664 3 385 6 224
2220 -4.40215 6.06686 16.3158 174 172 160 1.31499 5 945 6 243 1 866
2222 -1.3358 -2.10806 15.3507 175 176 178 0.371159 2 288 1 252
2224 2.67751 -2.44254 15.3096 29 24 25 0.436877 3 688 6 361 1 241 9 191
2227 -0.994612 7.31452 15.7135 179 175 174 0.917635 2 2807 6 415
2228 -1.77292 7.42309 15.5037 197 195 196 1.01044 2 601 6 421 1 640 9 400
2229 -1.73292 7.49316 15.5356 157 155 156 1.12776 2 522 6 440 1 382 2 1433 9 301
2231 -4.08854 2.53552 13.5689 63 31 16 0.437173 3 964 6 474 1 468
2232 6.54054 6.49371 16.314 109 102 99 1.28824 7 1346 6 491 1 1530 4 1964
2233 2.03434 7.79974 16.0187 150 147 152 2.3054 8 961 6 512
2234 -1.73466 7.35435 15.8862 125 126 128 1.00391 2 1250 6 515 1 2151
2236 -1.72704 7.34735 15.497 149 148 146 0.598969 2 603 6 522 1 383
2238 -1.59964 -2.92055 15.2077 185 181 180 0.31728 8 578 6 550 9 455
2239 3.60088 -2.613 15.3399 34 34 36 0.405878 3 1321 6 551 9 462
2247 -7.44966 4.21242 15.6885 49 30 20 1.79941 7 2746 6 665
2249 -3.07781 4.30154 15.2916 174 168 156 1.71419 3 2452 6 667 1 344 2 2796 9 311
2256 0.332549 0.325669 2.74621 97 93 82 1.1824 2 1802 6 766
2258 1.51522 7.49487 15.3094 172 169 162 1.18049 6 777 1 1801
2260 4.43474 5.35426 11.3372 42 37 43 0.568448 2 634 6 797 1 423
2261 2.51162 -3.47501 15.2043 197 195 198 0.429491 10 1357 6 832 9 714
2263 -1.2887 -3.98291 15.1082 159 148 132 0.826502 4 1276 10 2225 6 856 9 1186
2264 3.12028 -3.53803 15.2563 177 173 174 0.80408 4 2777 8 1187 6 867 9 1162
2265 -0.359832 -3.69387 15.1358 23 9 9 1.0362 7 652 6 872 9 1242
2268 2.8545 -2.96028 15.1516 113 110 120 1.06545 8 1296 6 911 2 1658 1 787 9 774
2271 3.25726 -2.55809 15.3131 119 120 125 0.784668 8 2049 6 943 9 1419
2272 -1.48027 7.24485 16.0172 97 89 83 0.999139 2 2029 6 950 9 1002
2273 4.17847 5.08047 11.4384 115 92 98 1.36854 2 1152 6 976 1 1718
2274 4.61248 5.27137 11.413 13 12 22 0.492198 2 1174 6 997 1 623
2276 2.45173 -3.53752 15.1938 227 225 230 0.211526 10 2407 6 1001 9 705
2277 4.71666 5.3391 11.4893 56 65 80 0.49035 2 2626 6 1003 1 620
2279 4.74575 5.51367 11.4799 131 146 175 0.396459 2 1212 6 1024 1 602
2281 3.16987 -3.43189 15.2386 198 196 201 1.2544 2 1576 6 1126 9 1185
2282 0.191516 -3.56861 15.1861 94 54 71 0.168337 2 1588 6 1133 1 1229
2284 -0.0542716 -3.42329 15.1778 127 78 97 0.437217 8 1867 6 1152 9 1330
2287 3.25542 -2.97229 15.255 175 178 190 1.33976 10 2546 6 1184 9 765 1 1264
2289 -0.369128 -3.13212 15.2065 163 104 123 0.367746 3 2058 6 1193 9 1426
2290 3.72391 -2.83622 15.3144 180 183 190 0.533087 4 2935 6 1199 9 1627
2295 3.79185 -2.48876 15.3499 168 169 173 0.372329 8 2061 6 1228 9 502
2297 -1.17946 -2.42796 15.1998 119 120 125 1.31931 2 1782 6 1248 1 2098 9 1979
2303 6.84019 6.02407 16.2171 164 159 152 0.635862 7 3242 6 1305 9 636
2305 -2.01041 6.16203 15.9271 102 89 82 0.0369108 2 2841 6 1324
2308 4.50861 4.76022 11.4437 112 93 28 0.607379 2 1130 6 1398 1 936
2309 -1.53519 -3.98674 15.0522 198 187 169 1.64711 4 2667 6 1412
2310 -0.436585 -3.8478 15.1359 198 183 180 0.693512 10 2263 6 1422 9 1196
2313 2.75054 -3.56791 15.1275 69 65 66 1.29525 7 3165 8 1173 6 1436 9 591 7 3166
2314 3.39121 -3.52318 15.2402 122 120 123 0.41609 8 1870 6 1443 9 1156
2315 -0.900831 -3.78856 15.1266 111 108 107 0.66658 10 2259 6 1444 1 2076 9 2078
2316 3.16175 -3.51543 15.2155 106 93 89 0.31641 8 1873 6 1451 9 1163
2317 -0.0386051 -3.63456 15.1847 153 91 110 1.23159 5 1206 6 1473 9 1246 8 1828
2318 2.21874 -3.42861 15.1719 195 179 171 2.31864 2 2760 6 1482 1 761 9 572 9 1218
2319 0.161848 -3.53818 15.1853 164 77 89 0.140511 4 2772 6 1504 9 1276
2320 2.12829 -3.35456 15.1864 159 141 130 1.82162 4 1032 10 884 6 1513
2321 0.148121 -3.48198 15.1782 168 115 116 0.0533034 10 2363 6 1515 9 1302
2323 -0.242091 -3.45737 15.1945 156 86 107 0.275217 8 2788 6 1539 9 753
2325 -0.273055 -3.35191 15.1882 157 83 100 0.429841 10 1339 6 1562 9 1367
2329 -1.43053 -3.06018 15.2528 119 46 57 1.1194 4 1309 6 1650 9 1577
2331 3.22661 -2.64895 15.3371 118 119 124 0.235962 8 2034 6 1670 9 1458
2332 -0.210692 -2.82795 15.2348 94 18 28 0.509185 10 2507 6 1676 9 2149
2333 -0.242183 -2.82071 15.2249 124 47 57 0.717931 10 2506 6 1677 9 2055
2334 2.93754 -2.5854 15.3126 102 91 88 0.642767 7 2518 6 1691 9 1375
2335 2.66029 -2.6302 15.3706 179 179 179 1.57575 8 2042 10 339 6 1692 9 1507
2336 3.678 -2.53738 15.3569 96 97 101 0.256871 2 1716 6 1694 9 1439
2337 3.11479 -2.54741 15.3411 206 204 209 0.184857 8 2800 6 1698 9 1119
2341 3.58266 -2.39235 15.4166 66 71 77 0.412433 8 2081 6 1724
2346 2.19921 -2.09508 15.3841 193 191 195 0.585407 8 2119 6 1770 9 1972
2347 0.104782 -2.14099 15.3246 173 169 166 0.823179 4 3070 6 1772 9 1963
2349 7.35134 5.91321 16.2059 170 167 162 0.71472 8 2307 6 1848 1 1955 9 1005
2350 7.58869 6.03248 16.2408 20 17 10 0.735787 2 1814 6 1850 1 889 9 632
2351 6.76681 6.1029 16.1233 152 147 143 0.808483 7 2996 6 1857 1 1899 9 405
2352 5.25798 4.7714 13.1145 146 144 145 1.43764 2 2164 6 1859 1 1956
2353 -1.65646 6.08949 16.2214 127 118 109 1.8205 5 2116 6 1861
2357 -4.10401 5.30231 13.3148 54 55 54 1.85444 3 2644 6 2026
2363 -2.03257 6.77436 15.9489 7 3 2 1.05002 2 2569 6 2078 9 1789
2365 -1.8088 6.78176 15.9606 13 7 7 1.18125 3 3652 6 2080 1 1532 9 1797
2366 -1.98723 6.84005 16.0392 7 3 2 1.418 7 1374 6 2082
2367 -5.44228 6.84948 16.0754 15 15 15 1.11519 5 1876 6 2085
2369 -1.36289 -2.98259 15.209 90 19 34 1.71849 8 1934 6 2120 1 2090 5 1319 9 2064
2371 -2.20717 7.26615 15.955 46 42 43 1.49176 8 393 9 1876
2372 -2.46218 5.36629 11.8156 0 2 5 0.416358 6 2210 1 1619
2374 -1.06079 -3.18349 15.1994 206 140 156 0.917208 10 2405 6 2277 9 1434
2377 2.7798 -2.98931 15.2697 21 22 28 2.26227 10 1406 6 1613 4 2899 5 1280 6 1602 9 1371
2378 -0.597118 -2.28359 15.3199 163 157 161 1.89373 5 1396 10 2607 4 3032 10 2594 6 1260 9 868 8 2070
2379 -1.75214 6.38231 16.1314 22 16 15 1.74014 5 2072 10 4297 6 2167 3 2227 10 4312 7 1755 2 2688
2380 0.173882 -3.21168 15.1775 142 137 132 2.11385 4 2849 6 2275 3 2051 10 1356 4 2832 5 1265 6 1584 9 1398
2381 -3.97063 5.87132 15.8059 100 91 86 0.837897 4 2072 10 4317
2382 1.39672 7.8582 15.7403 171 168 161 0.0578566 2 131 6 68
2383 0.18247 -2.86884 15.2326 168 168 176 0.341676 2 2088 1 499 9 461
2593 2.21739 -3.61037 15.1962 84 74 68 1.48562 4 1295 6 597 3 1982 10 2386 1 1183 4 2754 9 589 9 1167
2384 -7.72652 4.03199 16.5794 0 0 0 0.146995 4 3244 8 321
2387 -1.88243 6.64943 15.9533 8 4 3 1.23491 3 3814 6 2053 9 1757
2597 3.51184 -2.87342 15.2784 86 85 88 2.1574 6 1620 9 1379 10 860 7 1067
2388 -2.31237 6.99813 15.8592 11 7 8 1.86337 7 1392 6 2131
2389 -0.639628 -2.33055 15.2731 107 92 96 1.76177 3 2204 8 2067 7 2551 2 1796 6 636 3 2199 4 3021 5 1388 4 3024 2 1791 1 1413 1 1415 1 1418
2394 -0.898851 -3.61896 15.1748 111 100 100 1.39091 3 1978 4 2741 10 927 5 1216 8 1821 2 1594 4 2748 8 1826 6 1501 9 1294
2605 -1.68776 6.98564 16.0061 124 115 112 1.32146 8 2458 7 1848 3 1573 8 1069 1 1559 9 989
2396 -1.44591 7.35392 16.0831 93 83 73 1.72088 8 931 7 865 2 529 6 509 3 1597 8 932 7 1418 2 2046 1 951 1 1632 9 294 9 1892
2398 -1.18031 -2.23796 15.3343 114 115 117 1.5885 4 1107 10 626 5 566 6 640 7 2561 2 1808 1 474
2399 10.7176 -5.03703 15.4761 142 156 171 2.45655 4 1372 8 1129 7 1184 3 1221 2 1481
2400 0.609046 5.5412 15.6161 121 109 95 2.2238 6 6 1 10
2401 -0.777815 6.23969 15.8355 142 137 133 2.21592 2 10 6 9 1 11
2404 -5.50044 2.40878 12.8024 56 38 28 0.124992 6 27 1 34
2405 -5.27183 2.74106 12.7922 165 155 146 0.468086 6 31 1 65
2409 -1.59713 7.3891 15.8886 157 150 144 0.614024 2 526 6 190 1 197 9 157
2410 2.12408 -2.98345 15.2633 159 143 127 0.809056 2 415 8 2797 1 233
2411 3.33676 -3.92347 15.1342 148 140 142 1.03054 7 1026 1 309 9 1057 1 1053
2412 0.164263 -2.74986 15.2725 160 158 163 0.371149 6 547 1 351 9 267
2413 -2.44528 4.39677 15.8267 160 147 130 1.74198 8 1432 1 363
2414 6.88229 5.63746 16.1205 169 170 165 0.858688 6 672 7 1319 1 462
2416 2.92299 -3.21617 15.2699 151 149 152 1.41624 2 773 1 532 9 1287
2417 -4.62976 6.20122 15.8105 142 134 132 1.3656 7 476 8 485 1 574
2419 3.13258 -3.62225 15.1899 131 116 113 0.692427 5 1183 1 741 9 1143
2420 -1.08683 -3.9604 15.1631 158 153 150 0.238745 10 2232 1 752 9 709
2421 0.178754 -2.54885 15.3001 165 164 168 2.17074 6 1242 1 819 9 2002
2422 -6.15933 5.94656 15.8288 0 0 0 0.200721 5 1962 10 2004
