# 3D point list with one line of data per point:
#   POINT3D_ID, X, Y, Z, R, G, B, ERROR, TRACK[] as (IMAGE_ID, POINT2D_IDX)
# Number of points: 692, mean track length: 2.67919
9 -4.83715 1.41279 14.248 76 45 40 1.0956 2 39 5 33
65 -5.04475 4.17403 8.56526 203 212 230 0.260523 2 499 5 490 1 625
1 -1.99688 2.85334 13.2532 24 34 44 1.20617 2 0 5 4
393 -1.5269 3.9127 13.0428 8 15 24 0.998204 2 298 5 191 1 218
2 -5.02646 3.1735 15.2216 60 26 24 2.07342 2 2 5 2 1 0
3 -1.90581 1.60692 12.793 31 41 50 2.07744 5 16 1 15 3 13
387 -2.07991 4.71143 8.00705 153 136 116 0.172083 2 182 5 174 1 157
4 -1.10051 4.92275 8.43739 65 58 65 2.44215 2 13 5 11 1 7
5 -2.45444 4.74761 7.69595 187 192 211 1.09967 2 28 5 30 1 21
397 -3.64566 5.47777 6.67889 64 62 49 0.143823 2 270 5 346 1 236
6 -5.30975 1.83017 13.8581 77 59 37 1.56171 2 30 5 39 1 22
7 1.84068 2.2574 14.0259 247 175 248 0.978707 2 31 5 43 1 30
407 -7.89359 4.5106 10.8846 159 128 86 2.32142 2 237 5 1168 1 293
8 2.89994 -0.166671 14.8067 116 110 106 1.05525 2 38 1 52
401 6.56061 0.472228 20.4678 253 255 227 1.45666 2 2891 1 260
10 -4.52471 4.76244 7.26318 162 163 158 2.51949 2 49 5 49
11 -4.02696 1.82467 14.0375 107 90 60 1.60895 2 63 5 61 1 67
395 -4.67388 4.70492 7.22397 127 108 73 0.357634 2 323 5 387 1 231
12 -4.78391 0.42867 14.0996 110 81 51 1.74271 2 67 3 71 1 56 4 74
13 -4.3378 5.27168 7.1288 119 111 88 0.214428 2 75 5 59 1 62
405 -7.39551 4.06097 11.869 155 144 127 0.946554 2 299 5 325 1 286
14 -3.22212 5.39609 7.07047 133 113 76 0.73791 2 85 5 135 1 95
15 -5.01847 3.94795 11.7974 151 136 107 1.75991 2 95 5 64 1 65
415 -7.82709 3.93016 12.1367 179 155 127 0.160573 2 395 5 573 1 363
16 -5.07398 4.08922 8.96304 201 208 236 1.66932 2 96 5 78 1 87
17 -4.53683 -0.425502 13.8826 209 213 198 1.51539 2 102 5 100 1 76 3 51 4 42
409 -4.22118 4.21718 9.94781 182 179 190 0.62245 5 334 1 298
18 -5.30059 1.51382 14.0547 166 146 110 1.32628 2 107 1 156 3 1232
19 -5.73645 2.29381 15.0592 66 46 22 1.3955 2 111 5 315 1 186
403 -7.91061 3.3622 14.516 121 97 68 0.226083 2 357 5 320 1 279
20 1.74755 2.81656 14.7541 59 52 85 1.07359 2 115 5 286 1 108
21 -3.88046 5.35174 7.50348 11 7 5 2.15298 2 124 5 151 1 93
413 -4.08 3.9139 12.3601 48 31 15 0.805969 2 234 1 357
22 -4.20468 4.68813 7.5011 117 104 76 1.37493 2 133 5 177 1 121
23 -5.24443 4.09503 8.74879 157 140 122 0.650414 2 137 5 129 1 115
487 -11.4266 -4.01492 16.0756 217 187 133 1.2649 2 2383 5 2175 1 1282
24 -2.58599 3.93384 13.2565 113 97 68 0.138728 2 144 5 121
25 -2.6299 3.51468 13.5828 64 50 37 1.5513 2 146 1 111 5 188
481 -11.5115 -8.92065 14.9746 135 101 39 1.42261 2 2353 1 1241
26 -1.57112 4.02853 12.7455 167 167 193 0.312146 2 148 5 122 1 112
27 -5.08302 3.0396 14.0777 81 48 39 0.409652 2 150 5 285 1 138
411 -3.00144 5.45796 7.02843 104 43 15 0.340292 2 336 5 497 1 337
28 2.65534 3.46968 14.8383 50 50 50 1.05404 2 154 5 186 1 145
29 -3.91319 5.33995 7.29057 105 89 62 0.835622 2 164 5 165 1 166
485 -11.4944 -4.95052 16.036 123 97 44 0.321766 2 2774 1 1251
30 -4.68032 3.76416 14.032 53 37 21 0.806243 2 166 5 187 1 146
31 -4.4749 5.04418 7.06211 40 46 42 1.33461 2 167 5 152 1 126
32 -3.40922 3.82341 13.6936 167 162 165 0.826685 2 171 5 219 1 148 3 196 4 159
33 -3.55247 5.19212 7.28862 127 108 79 1.86118 2 174 5 519 1 224
728 -0.171733 4.17985 11.0996 203 199 232 0.520505 3 3815 4 2847
425 -2.69047 5.49059 6.82319 97 16 0 0.355947 2 1028 5 1013 1 507
34 -5.12712 4.00643 9.37467 150 132 121 0.442968 2 175 5 224 1 152
35 -4.65221 4.54459 7.533 197 209 209 0.117273 2 184 5 178 1 174
419 -3.65179 5.43832 6.72904 146 132 103 0.415798 2 289 5 492 1 421
36 -4.54571 3.90189 12.6152 167 157 140 0.673407 2 186 5 184 1 149
37 -5.1456 2.82912 14.161 43 11 12 1.162 2 187 5 284 1 191
732 3.78533 2.00399 12.9761 110 108 95 1.97192 3 2408 4 3429
429 -4.809 4.92466 6.88058 161 142 112 0.614003 2 479 5 730 1 536
38 -5.04832 4.76985 7.17205 149 143 106 0.404168 2 191 5 382 1 245
39 -2.37051 1.23195 7.51926 32 42 52 2.0371 2 205 5 310
439 0.907788 4.35182 5.89424 92 94 89 1.21807 5 1712 1 673
40 -4.71461 -0.38743 13.4296 150 133 107 0.568773 2 211 5 298 1 204 3 224 4 180
41 -4.70789 1.73114 13.5283 60 37 30 1.10746 2 219 5 280
433 -8.88081 3.19551 14.5507 19 8 5 0.518 2 1443 5 684 1 598
42 -4.90624 1.88569 13.7343 123 63 35 1.77091 2 220 5 405 1 269
43 -5.03649 2.04157 13.9201 62 21 27 1.45906 2 221 5 281 1 210
427 -1.28047 5.544 6.87562 72 68 54 0.159719 2 1030 5 812 1 520
44 2.80738 3.05681 14.6047 175 219 254 0.519472 2 223 5 289 1 141
45 0.568718 4.72255 9.70582 179 189 216 3.04775 2 239 5 131
437 -4.59633 4.64229 7.35869 135 124 118 0.141884 2 1052 5 926 1 634
46 -0.49894 5.00859 8.48338 192 204 235 1.08532 2 242 5 172 1 158
47 -4.11381 5.09563 7.35248 48 44 35 0.483139 2 255 5 527 1 322
447 -4.05205 5.33502 7.30986 60 53 27 0.687216 2 966 5 1618 1 784
48 -1.3766 5.54697 6.88818 163 156 146 0.248331 2 268 5 340
49 -1.35062 5.5628 6.73241 93 64 46 1.1948 2 272 5 214
441 -4.82574 5.17382 6.49577 125 115 102 0.513807 2 645 5 768 1 686
50 -4.19638 5.48563 6.58208 172 164 150 0.611224 2 273 5 347 1 348
51 -4.92523 4.06346 9.20255 166 144 134 0.256429 2 312 5 333 1 302
435 -6.42043 4.19366 8.75528 158 142 119 0.545622 2 572 5 1160 1 622
52 -4.7614 4.51261 7.51459 137 114 82 0.961562 2 321 5 551 1 311
53 2.67234 -0.429494 14.0076 254 254 255 1.72354 2 345 5 300
445 -4.7012 4.93708 6.83311 140 127 107 0.225522 2 957 5 1079 1 765
54 1.74373 2.76118 15.0486 54 40 71 1.7589 2 381 5 494
55 -5.15051 -0.626456 13.6618 192 173 133 1.24213 2 383 5 859 1 1050 4 976
391 4.23801 -3.62227 19.0385 0 0 0 0.0350643 2 1342 5 296
56 -7.56416 3.34326 14.312 152 123 81 0.630516 2 388 5 580 1 370
57 -7.01149 3.92845 11.8626 172 166 154 0.465712 2 396 5 572
385 -7.84442 3.3267 14.6319 123 102 75 1.35476 2 151 5 194 1 140
58 -4.70304 4.97739 6.76041 145 130 111 0.290653 2 431 5 394 1 327
59 2.72369 0.0856474 13.9719 173 1 250 0.766695 2 434 5 1303 1 576
443 -11.3843 -9.39933 14.5286 233 189 126 1.58106 2 2349 5 1999 1 694
60 -2.62769 5.45702 6.8694 65 44 37 0.355086 2 457 5 791
61 -3.05745 5.47472 6.82 134 111 70 0.99173 2 460 5 485 1 343
389 -6.20965 3.79785 9.57633 129 110 78 0.482764 2 302 5 222 1 192
62 -3.02265 5.53211 6.75395 145 126 96 0.0922226 2 464 5 473 1 417
63 -1.50718 5.579 6.78231 133 88 67 0.642004 2 468 5 458 3 305
463 -1.21131 5.51198 6.99869 9 7 3 0.259809 2 649 5 955 1 910
64 -4.47359 -0.587773 13.9441 210 214 200 1.09016 2 488 5 414 1 390 3 172 5 274
457 -2.38984 5.41627 6.8366 171 167 158 0.305834 2 1006 5 919 1 862
66 -4.90738 -0.0142 13.7729 136 116 83 0.825853 2 515 5 412
67 -5.30495 0.427602 13.8076 194 167 122 0.842621 2 521 5 619
451 -4.6211 4.64827 7.32541 163 158 142 0.0369339 2 910 5 1131 1 818
68 1.82744 2.47304 13.3535 249 162 247 1.58436 2 543 5 1350 1 1928
69 -9.2901 3.60934 12.9151 178 149 105 1.43926 2 551 5 1365 1 1452
461 -1.34966 5.21682 6.56592 165 159 137 2.76997 2 2336 1 882
70 -6.28803 3.93859 9.33085 135 126 109 0.679492 2 561 5 695 1 974
71 -5.06839 4.17468 8.48131 161 144 137 0.303019 2 576 5 1158 1 626
471 -7.95122 3.95699 12.0586 180 157 127 0.0427559 5 1182 1 987
72 0.69321 4.80644 9.71168 182 190 211 0.339178 2 579 5 552 1 467
73 -2.21721 5.21992 7.64289 112 107 104 1.55596 2 603 5 520 1 452
465 0.685247 4.44907 10.8365 189 188 220 0.640108 2 851 1 957
74 -1.70657 5.58326 6.73073 161 157 136 0.0248075 2 607 5 587
75 -1.34417 5.59095 6.7213 94 63 43 0.175794 2 608 5 1018 3 1044
459 -2.29978 5.43881 6.83206 123 122 120 0.793005 2 1009 5 928 1 875
76 -1.47841 5.48681 7.00537 169 166 151 0.389938 2 642 5 946 1 872
77 -1.27307 5.53142 7.00315 52 50 49 0.171509 2 650 5 958 1 892
469 -6.04859 3.82694 9.57657 154 141 124 0.200025 5 1173 1 978
78 -3.07116 5.50657 6.76779 37 14 1 0.103715 2 673 5 794 1 510
79 -1.30914 5.55936 6.82945 150 148 139 0.226637 2 674 5 584
479 -11.3244 -9.53488 14.3607 234 191 119 1.96201 2 730 1 1238
81 -1.57322 5.57648 6.73407 165 123 98 1.31073 2 692 5 1873 3 1008
473 -4.30734 0.512309 14.1015 255 247 234 2.16992 2 760 5 1307 1 1039 3 1212 4 957
82 -1.66273 5.58782 6.72921 132 88 71 0.39568 2 695 5 1872
83 -1.50466 5.6004 6.74184 158 118 95 0.159888 2 696 5 1879
467 -6.29641 3.99645 9.25094 128 119 103 0.355934 2 855 5 1167 1 968
84 -3.45186 5.49813 6.53499 159 151 130 0.441675 2 702 5 1816 1 521
85 -1.5186 5.60357 6.68937 80 37 31 0.0936481 2 704 5 1021
477 -8.52822 3.18688 14.2696 58 38 10 0.42958 2 1445 5 1349 1 1220
86 -3.59767 5.51947 6.54759 100 91 78 0.447582 2 708 5 1809
87 -3.45923 5.53078 6.52918 14 12 2 0.359703 2 713 5 962
89 -4.65311 -0.29499 13.4797 154 148 124 0.61298 2 748 5 1226 1 573 4 368
90 -5.22749 0.0289208 13.7269 118 89 57 1.78959 2 750 5 1285 1 1043 3 1616 4 2461
91 -5.02588 1.64212 13.7104 98 47 27 1.18794 2 775 5 1317
475 -2.71613 5.47259 6.89445 79 22 0 0.152835 2 1180 5 1747 1 1124
92 -4.97665 1.85186 13.7348 135 80 49 0.12815 2 779 5 1204
93 -5.37313 2.16603 14.2896 112 94 56 0.448255 2 786 5 3427 1 1414
94 2.48958 3.14707 14.6196 90 86 84 0.481728 2 799 5 1189 1 1006
95 -0.487069 3.78563 13.496 76 71 65 1.10625 2 813 5 1179
495 -1.73964 1.30193 5.45928 81 88 98 0.763216 5 5300 1 1419
96 -8.73543 3.71208 12.7416 170 143 98 0.0911555 2 815 5 1369
97 -8.0302 3.88897 12.54 175 152 120 1.76092 2 821 5 1378 1 993
489 -4.55301 0.0136456 14.0269 112 76 50 0.620222 5 2557 1 1355 3 1617
98 -7.01368 3.83412 12.2348 190 173 147 1.16502 2 822 5 2855 1 1468
99 -7.28786 3.95117 12.2882 185 167 143 1.59568 2 829 5 1383 1 988
100 -6.20234 3.85573 9.49241 153 138 115 0.393774 2 847 5 1237 1 1078
101 -1.87721 4.36046 10.3959 187 187 215 1.18511 2 853 5 1428 3 506 4 266
102 -4.68037 4.26956 8.52285 142 133 134 0.552945 2 872 5 704
103 0.620386 4.83735 8.87332 167 173 195 0.902271 2 884 5 1491
503 -4.7167 5.01437 6.72601 170 159 143 0.369685 2 1102 5 1064 1 1668
104 -2.12667 4.90624 7.45998 142 135 122 1.0829 2 930 5 1036 1 753
105 -4.5383 4.8247 7.11156 150 151 146 0.426871 2 940 5 1107 1 745
497 2.67484 3.63095 15.8462 0 0 0 0.495043 2 807 5 1239
106 -4.69041 4.93366 6.87727 169 159 147 0.692344 2 953 5 731 1 650
107 -3.34846 5.43486 7.04359 130 116 81 0.805466 2 996 5 1677 1 831
491 -4.96685 0.725914 13.5033 114 78 42 0.775072 2 2446 5 2744 1 1365
108 -4.81918 5.13434 6.51882 171 168 154 0.420738 2 998 5 763 1 815
109 -1.33994 5.52416 6.97387 40 37 33 0.0609418 2 1010 5 959 1 894
501 -3.99215 5.14283 7.21784 94 80 57 1.38129 2 4511 1 1647
110 -1.39356 5.52736 6.961 57 56 51 0.170094 2 1014 5 965 1 897
111 -2.99779 5.4775 6.8694 74 55 23 0.0933427 2 1016 5 1742
511 3.80215 -5.30004 17.5527 232 230 153 1.87536 5 822 1 1798
112 -2.23332 5.44155 6.7592 136 140 151 0.111124 2 1025 5 947 1 891
113 -2.72835 5.51459 6.7822 114 26 16 0.0982182 2 1037 5 945 1 903
505 -4.75836 5.11398 6.60613 172 174 163 0.468907 2 2333 5 1633 1 1698
114 -3.14177 5.51863 6.75934 32 11 0 0.225974 2 1040 5 930 1 512
115 -3.02807 5.48849 6.8191 133 112 84 0.398132 2 1058 5 2269 1 2678 2 2142
499 -4.53205 4.74856 7.25208 143 142 138 0.223975 2 1622 5 1508 1 1588
116 -5.22513 1.86924 13.9808 145 128 98 0.0551197 2 1067 5 3392 1 1400
117 -4.65776 4.97358 6.79414 172 171 160 0.663684 2 1077 5 1069 1 657
118 -1.4474 5.40093 7.23801 50 39 43 0.287882 2 1117 5 1702 1 1730
119 -1.48479 5.42205 7.20274 37 25 29 0.393428 2 1130 5 787 1 835
455 -2.42591 5.3883 6.94469 165 157 143 0.0555459 5 897 1 846
120 -2.57954 5.36093 7.01683 88 76 56 0.242842 2 1140 5 1686 1 1734
121 -2.43024 5.42026 6.82686 107 102 101 0.223582 2 1177 5 1760 1 1130
449 -2.54557 4.80567 7.63465 129 118 112 0.20772 2 1604 1 803
122 -2.26271 5.44425 6.73853 165 168 177 0.112723 2 1202 5 1799 1 1165
123 -2.71988 5.49227 6.79617 145 120 89 0.196999 2 1205 5 1783 1 1159
507 -2.95521 5.44691 7.04922 139 113 73 0.323645 2 4356 5 1693 1 1746
124 -1.3277 5.55641 6.83367 163 159 148 0.344101 2 1215 5 2379
125 -2.68954 5.53393 6.77479 158 133 102 0.511887 2 1221 5 2313
453 -1.35424 5.40358 7.30346 154 151 134 0.144217 2 1071 5 881 1 824
126 -1.52558 5.55833 6.79975 165 157 135 0.103063 2 1226 5 991
127 -2.37976 5.50617 6.69408 41 23 3 0.409054 2 1230 5 2347
128 -3.66599 5.48593 6.65109 75 69 57 0.0998442 2 1235 5 2275
314 -1.43348 5.60081 6.71118 156 129 102 0.527516 2 4259 5 3781 3 2776
129 -3.61769 5.48672 6.64581 69 60 47 0.475054 2 1237 5 1772 1 1171
130 -1.61222 5.57494 6.7619 116 73 44 0.24499 2 1239 5 1862
260 -2.71906 5.47282 6.8539 140 92 66 0.224652 2 3063 5 5000 1 2671
131 -3.64935 5.49583 6.62882 161 148 131 0.429153 2 1241 5 2286 1 1177
132 -1.37325 5.58794 6.74533 163 128 106 0.222723 2 1245 5 2420
318 -3.1905 5.56804 6.59164 79 59 32 0.212657 2 4284 5 5216
133 -1.29285 5.59259 6.7224 172 160 144 0.150119 2 1248 5 1888
134 -1.6128 5.59054 6.71573 122 80 56 0.0306557 2 1250 5 2414
312 -2.98899 5.58292 6.71497 153 135 107 0.882174 2 4242 5 5175
135 -1.63553 5.6154 6.6556 91 46 25 0.00356125 2 1275 5 1898
136 -2.36071 5.56395 6.54364 137 114 75 0.277046 2 1286 5 1004
258 -1.60429 5.51342 6.92643 166 156 144 0.161567 2 3051 5 5155
137 -1.77394 5.61436 6.59815 155 103 80 0.394511 2 1288 5 2460
138 -1.60438 5.62773 6.62367 128 95 60 0.249882 2 1289 5 2479
268 -7.04522 3.73729 12.8848 117 93 65 0.136156 2 3343 5 3692 1 4101
139 3.52669 -0.649907 14.0423 255 255 234 2.29288 2 1348 5 659
140 -4.548 -0.663209 13.9747 181 169 131 1.46832 2 1349 5 1278 1 1351 3 1191 4 977
262 -2.41146 5.43986 6.7912 161 154 145 0.153498 2 3142 5 5043 1 4761
141 -4.91628 0.100922 14.1381 138 108 80 0.60496 2 1353 3 3326
142 -4.44019 0.0926347 14.047 127 100 70 0.844457 2 1355 5 1294 1 1042 3 825 4 566
256 1.75382 1.93416 14.5766 207 138 255 0.686326 2 3016 5 3445
143 -5.21569 0.141591 13.9049 132 97 69 1.46868 2 1356 5 2719 1 1357
144 -4.12668 0.928753 13.886 254 247 237 0.451769 2 1371 5 1238 1 1368
266 -2.50912 5.447 6.78171 143 123 99 0.0469296 2 3224 5 5039
146 -5.19691 1.56299 13.885 178 154 123 0.49226 2 1396 5 2767 1 1388
276 -1.28868 3.97464 12.8207 138 137 151 1.10805 2 3389 5 3813 1 4598 3 2545
147 -5.20323 1.6987 13.9051 163 142 105 0.23927 2 1400 5 3377 1 1393
148 1.74916 2.45228 14.8444 196 139 246 2.02032 2 1419 5 1341
270 -0.538071 3.85898 13.2514 53 49 48 0.550585 2 3359 5 3785 1 2141
149 -2.4469 2.77424 13.4169 20 23 25 0.186977 2 1435 5 319
150 -2.47209 2.87097 13.3056 15 22 28 1.68991 2 1439 5 2830
264 -5.20442 3.14989 14.3623 100 67 59 0.262678 2 3187 5 2824 1 1441
151 -5.12277 3.02557 14.2533 54 24 13 0.807807 2 1440 5 3581
152 -6.56111 3.62121 13.441 93 70 36 0.700276 2 1452 5 1367 1 1455 4 877 3 1269
274 -0.938506 3.82865 12.9 55 49 52 0.174904 2 3370 5 5342
153 0.527625 3.77495 13.3243 157 151 187 1.81573 2 1461 5 1396 1 4184
154 -8.90085 3.77491 12.7734 174 147 102 0.831205 2 1467 5 3675
284 -0.222234 4.20162 11.5005 153 154 186 0.976263 2 3501 5 2896
155 -7.00837 3.80231 12.3496 178 161 135 0.443149 2 1474 5 3721
156 -1.38659 3.9229 12.8542 41 41 39 1.4698 2 1475 5 2875 3 4165
278 -6.89344 3.95003 11.8257 84 84 76 1.22601 2 3429 5 3772
157 -3.36608 4.19857 11.5018 161 146 140 0.442125 2 1502 5 1171 1 1079
158 -6.35993 4.00521 9.19409 143 135 124 0.550009 2 1528 5 1419 1 1518
272 -0.678894 3.8726 13.2525 52 47 44 0.648853 2 3362 5 3784
159 -1.8268 4.63364 8.52344 127 123 139 0.489831 2 1559 5 1140 1 939
160 -1.88676 5.20703 7.77218 147 149 168 0.319977 2 1656 5 1593
161 -1.99729 5.23743 7.70919 86 88 100 0.380476 2 1666 5 1600 1 766
162 -4.62958 4.91116 6.93256 140 134 119 0.0745052 2 1673 5 1548
164 -0.531723 5.0322 8.43236 226 231 253 0.266453 2 1742 5 3049 1 1229
166 -2.10593 5.20845 7.79815 67 66 72 0.209318 2 1843 5 1585
167 -1.84629 5.21325 7.78737 112 115 134 0.222444 2 1847 5 2073 1 1633
168 -4.17439 5.04294 7.36172 51 50 34 1.38451 2 1866 5 3072 1 1611
290 -6.34476 4.06954 9.17613 139 132 121 0.13696 2 3621 5 2902
169 -4.53723 4.89465 7.0278 152 153 149 0.325773 2 1871 5 1543 1 1615
170 -1.96321 5.25223 7.66929 95 98 107 0.175744 2 1872 5 1611
300 -4.13908 4.75109 8.0098 220 222 242 2.46434 2 3896 5 5384
171 -3.40753 5.19888 7.209 129 115 86 0.21737 2 1916 5 4509
172 -3.72407 5.36095 7.34777 101 84 56 0.414927 2 1949 5 4821
294 -1.86563 4.67817 8.57878 200 194 213 1.09833 2 3804 5 1139 1 1557
173 -4.74109 5.1394 6.63246 137 140 135 0.579357 2 2027 5 1063 1 2511
174 -1.44864 5.44302 7.12194 169 161 148 0.809476 2 2031 5 4974 3 4197
288 -2.94436 4.38629 10.1751 187 185 199 0.151854 2 3612 5 3941
175 -1.25321 5.47695 7.1636 116 110 98 0.158826 2 2036 5 2272 1 2616
176 -3.31543 5.43592 7.03498 45 26 2 0.228817 2 2049 5 4816 1 2569
298 1.91255 5.77541 10.473 59 56 51 2.48311 2 3876 5 4270
177 -3.35808 5.45217 7.00535 62 42 11 0.376758 2 2068 5 4844 1 1748
178 -2.62951 5.43262 6.89613 140 123 97 0.551092 2 2098 5 2249 1 2631
308 -1.21507 5.5616 6.80646 131 75 58 0.340582 2 4178 5 3407
179 -3.70864 4.59105 8.1381 129 123 131 2.03814 2 2127 5 2971 1 3219
180 -1.65189 5.52589 6.90364 107 97 85 0.148828 2 2131 5 5182 1 2722 3 2112
302 -1.29742 5.46999 7.13417 107 99 86 0.953177 2 3916 5 5007 3 2105
181 -1.20735 5.53826 6.87991 91 83 70 0.304357 2 2151 5 5253 1 2742
182 -3.83811 5.47798 6.7589 152 135 109 0.154525 2 2157 5 4938 1 2662
296 -2.46798 5.51327 6.73598 95 75 49 0.0690559 2 3859 5 5159
183 -3.60345 5.46552 6.74337 153 139 113 0.849576 2 2158 5 4959 1 865
184 -3.10863 5.52214 6.76868 143 121 97 0.356238 2 2174 5 2295 1 1170
306 -1.43273 5.14613 8.02543 97 95 100 0.499657 2 4077 5 5466 1 2362
185 -3.06085 5.52693 6.75203 150 130 104 0.203364 2 2186 5 4632
186 -3.21374 5.5268 6.72547 52 34 10 0.388378 2 2192 5 5074
316 -3.09117 5.56809 6.62871 80 62 38 0.489112 2 4273 5 5211
187 -3.01575 5.53061 6.72269 150 131 102 0.197643 2 2198 5 5119
188 -2.22229 5.48007 6.64686 163 162 160 0.366869 2 2199 5 2357 1 2760
310 -3.0789 5.53698 6.68297 83 66 36 0.208593 2 4220 5 5138 1 2739
189 -3.17834 5.53631 6.72507 131 114 88 0.308084 2 2202 5 5095 1 4829
190 -1.16202 5.58253 6.79438 78 41 18 0.442562 2 2203 5 5399
304 -4.6431 4.61258 7.38268 154 148 133 0.56289 2 3961 5 4156
192 -3.15608 5.53459 6.69829 82 65 39 0.488304 2 2207 5 5116 1 4850
378 -6.35709 3.78801 9.55697 149 137 121 2.00796 2 77 5 182 1 86
193 -2.41222 5.54445 6.68833 69 45 17 0.183079 2 2220 5 5225
194 -2.48428 5.54654 6.65891 74 52 20 0.00529562 2 2224 5 5233
324 -3.12551 5.59069 6.52916 155 139 116 0.0863134 2 4332 5 5275
195 -1.41369 5.59132 6.72787 87 51 21 0.0345761 2 2225 5 3654
196 -2.52902 5.5422 6.63608 83 66 37 0.0767796 2 2229 5 2698
382 -11.9794 2.6983 18.7131 0 0 0 0.431098 2 162 5 312
197 -1.57013 5.5996 6.72672 127 85 60 0.710274 2 2230 5 2416 3 3499
198 -3.56651 5.51303 6.56647 92 84 70 0.305019 2 2234 5 5123 1 2753
199 -3.28888 5.50664 6.54646 71 58 44 0.958908 2 2236 5 5179
200 -1.55669 5.5997 6.69652 150 107 88 0.174294 2 2237 5 3696
322 -3.12134 5.57156 6.52662 86 70 45 0.216115 2 4321 5 5257
201 -1.21485 5.58354 6.67676 161 152 135 0.019612 2 2238 5 3921
202 -1.41348 5.60501 6.69258 102 66 45 0.821357 2 2242 5 2440 3 2186
332 -1.31329 5.42685 7.2824 184 172 171 0.209335 2 4644 5 2217 1 4612
203 -1.46776 5.61098 6.65851 89 65 45 0.0971566 2 2254 5 2456
204 -1.56037 5.61556 6.65642 158 114 89 0.17358 2 2259 5 2455
326 -3.04608 5.4856 6.78013 67 41 19 0.405906 2 4367 5 5018
205 -3.56524 5.52767 6.51205 83 74 59 0.18591 2 2263 5 5178
206 -1.61388 5.60853 6.62738 170 125 93 0.523443 2 2264 5 3995
320 -2.31678 5.58492 6.57449 85 58 25 0.0351735 2 4311 5 3544
207 -4.52249 1.66728 13.5452 106 76 74 0.518256 2 2299 5 1318 1 1864 3 1242
208 -6.14876 3.74921 12.2895 123 118 115 1.75789 2 2303 5 3719
330 -4.45243 5.00926 7.07896 25 35 27 1.56796 2 4496 5 5220
209 -4.69505 5.30689 6.94183 46 47 31 0.315481 2 2332 5 5239 1 2505
210 -2.59046 5.46421 6.82981 77 57 34 0.206743 2 2343 5 5022 1 4747
549 -1.11895 5.22074 7.80775 42 34 34 0.513837 5 5464 1 2403
340 -1.56181 5.46548 7.09725 100 88 75 0.0671629 2 4756 5 4992
211 -1.37165 5.57903 6.8016 156 112 89 0.186667 2 2345 5 1866
212 -5.24619 -0.516782 13.6533 181 150 106 1.92518 2 2404 5 2697 3 1194 4 2882 5 2696
334 -4.5896 5.3026 7.01324 107 106 88 0.161067 2 4670 5 4642
213 -5.05317 -0.185701 13.6575 184 154 121 0.372329 2 2410 5 860 1 1045
214 -4.44112 -0.0959949 13.983 255 248 221 0.505719 2 2413 5 2707 1 1870 3 1197 4 969
328 -1.06265 5.21378 7.73096 72 72 82 0.120535 2 4416 5 4516
215 -4.5488 -0.0871891 13.9495 164 145 118 0.126117 2 2414 5 3279
216 -4.39336 -0.0602557 13.9792 126 106 78 0.751086 2 2416 5 1284
338 -2.90998 5.5317 6.69395 80 61 31 0.0170586 2 4719 5 5146 1 2737
217 -4.67835 0.0233038 13.7397 146 120 91 0.341736 2 2419 5 3289
218 -4.40766 0.160318 14.0282 254 241 222 0.721917 2 2424 5 1965 1 3415 3 1202
557 -3.84344 5.46627 6.78635 120 99 68 0.455244 2 2138 5 4909 1 2647
348 -1.52355 5.48903 7.04751 122 112 99 0.158006 2 4813 5 5048 1 4714
219 -5.16154 0.239897 13.7127 135 109 51 1.55393 2 2428 5 2728 1 1846 3 3336
220 3.67331 0.225336 14.3391 255 255 244 0.752656 2 2429 5 2740
342 -1.3604 5.48309 7.1108 168 160 146 0.0624277 2 4760 5 5024
221 -5.25527 0.370546 13.7471 130 97 26 0.603875 2 2435 5 3316 1 2055
222 -5.09823 0.399364 13.5485 123 93 9 0.458984 2 2436 5 3317 1 1807
545 -4.60114 4.76381 7.17344 141 137 128 0.165143 2 1811 5 4241 1 2342
336 -1.99345 5.24178 7.65988 142 145 154 0.704369 2 4684 5 4497 1 4385
223 -5.01367 0.415438 13.7104 105 79 47 1.63775 2 2438 5 663 1 578
224 -2.20862 1.37242 12.7463 62 69 77 0.512584 2 2465 5 2765 1 3730
282 -2.06087 4.16425 11.7697 138 135 152 0.363624 2 3470 5 3863
225 -4.46316 1.73455 13.5872 64 34 32 0.144747 2 2473 5 3384
226 -4.7882 1.74062 13.5339 67 33 21 0.461792 2 2475 5 3383
356 -4.45162 3.8586 12.3712 178 167 149 1.43125 5 1392 4 3455 3 1748
227 -2.9819 1.84856 12.1919 94 81 65 0.806069 2 2484 5 621
228 -5.25695 2.76001 14.2356 153 129 103 0.266442 2 2526 5 3528 1 1785
286 -5.05157 3.94961 9.31455 131 123 134 0.790943 2 3585 3 2530
229 1.89181 3.02314 14.468 105 89 133 0.144158 2 2540 5 2833
230 1.04533 3.61425 12.7886 160 151 206 0.417545 2 2585 5 3778
280 -6.9121 4.14783 12.3906 17 7 0 0.197045 2 3442 5 2870 1 2156
231 -8.05114 3.90523 12.1873 151 131 104 1.22573 2 2606 5 3733 1 4174 3 2344
232 -7.14915 3.96108 12.0564 189 173 153 0.379699 2 2612 5 3752 1 1222
354 -1.54491 5.51524 6.97616 111 102 87 0.263387 2 4882 5 5453 3 2684
233 -7.37154 4.03401 11.9876 192 171 150 0.948648 2 2615 5 3767
234 -0.498914 4.18431 11.91 100 100 128 0.665829 2 2624 5 1413 1 2200 3 746
364 2.0746 3.34968 14.5389 55 55 53 1.65665 2 9 5 12 1 8
235 0.151668 4.26034 11.6849 150 147 174 1.99304 2 2636 5 2901 1 2961
236 -5.78727 3.75524 9.80645 128 113 94 0.286141 2 2643 5 3838 1 1494
358 -5.21124 4.34474 7.93902 91 81 67 1.55193 2 4999 5 4041
237 -7.99702 4.35346 11.3004 111 106 103 0.777322 2 2658 5 3843
238 -6.41609 4.03031 9.10914 171 163 152 0.689239 2 2687 5 2899 1 2216
352 -1.46879 5.51611 6.9976 110 107 92 0.364015 2 4863 5 5132 1 1151 3 2697
239 -6.3481 4.16546 8.86314 170 153 125 0.479128 2 2700 5 3923 1 2234
240 3.84114 -4.82989 14.2953 230 240 179 0.984973 2 2768 5 3115
362 -1.475 5.52428 6.98372 170 164 148 0.507153 2 5083 5 5144 3 2705
241 -5.28568 -0.832928 15.2364 194 175 138 0.584008 2 2813 5 3254
242 -4.631 -0.420052 13.4737 215 200 179 0.557119 2 2824 5 3260 1 3600 3 3305 4 2441
372 2.38967 2.84099 14.2454 48 44 64 1.46484 2 62 1 44
243 -4.61598 -0.341254 13.4977 231 226 207 0.900368 2 2826 5 3263 1 3603 3 3310 4 2448
244 2.26171 -0.329526 13.7491 118 110 100 0.606549 2 2829 5 3275
366 2.92214 2.45941 13.6391 255 255 255 2.26112 2 18 5 26 1 12
245 -4.61404 -0.281455 13.5712 169 165 148 0.902755 2 2831 5 3268
246 -4.50445 -0.30511 13.8726 211 213 199 0.097082 2 2832 5 3267
360 -4.19975 4.42789 7.46387 220 218 239 2.06741 2 5007 5 4098
247 -5.24707 -0.0979754 13.7141 167 139 101 1.64088 2 2839 5 3276 1 4924
248 -4.682 -0.0597689 13.7679 153 126 105 0.625399 2 2845 5 3282 1 3614
370 -2.2692 5.13364 7.72607 93 84 85 1.4682 5 31 1 25
249 -5.1844 0.516314 13.7512 116 84 45 0.861142 2 2888 5 3323 1 1363
250 -4.52155 1.19085 13.4066 149 102 86 0.664744 2 2949 5 3352 1 3693
380 -4.31788 4.8814 7.45957 27 36 31 0.895162 2 81 5 80 1 89
251 -1.5563 5.51729 6.94768 170 161 147 0.38548 2 2952 5 5151 3 2687
374 -7.37606 3.40408 14.5374 144 117 72 0.418743 2 60 5 110 1 55
253 -2.55158 1.14379 7.943 31 44 52 1.05662 2 2982 5 2760
254 -4.85526 1.64899 13.5486 82 45 30 0.403458 2 2998 5 3376
368 -4.28117 5.11457 7.28888 17 22 16 0.217119 2 33 5 15 1 18
255 2.80013 1.78495 14.2058 122 111 149 1.88297 2 3003 5 3440 1 1906
257 2.84546 2.03028 14.5254 96 81 102 1.90674 2 3022 5 3469 1 3826
259 2.77315 2.2756 14.3863 117 118 131 0.450047 2 3057 5 3520
261 -1.30028 1.65497 6.64416 133 127 131 2.98394 2 3124 5 5080
263 -7.04656 2.66846 12.2822 45 28 4 0.106688 2 3158 5 3534
696 4.55558 -0.156017 12.4987 157 163 151 0.0642721 5 1289 3 3386
265 -2.49117 3.12677 13.395 15 15 25 1.70403 2 3204 5 5323
269 -1.09882 3.84157 13.3718 130 125 119 0.327823 2 3345 5 3755 1 4178
271 -6.22622 3.79572 12.8765 175 170 164 0.12442 2 3360 5 3709
640 -3.58683 5.47978 6.70169 146 134 118 0.380362 2 3744 5 4989 1 4772
273 -1.62602 5.54013 6.90735 170 160 148 0.161826 2 3368 5 5198 1 2729
275 -4.55101 3.86575 12.7978 148 129 114 0.713245 2 3376 5 1248
644 -1.27566 5.53871 6.92084 108 102 91 0.509523 2 2136 5 5222 1 4836
277 -6.53741 3.99332 12.3054 12 8 5 1.50132 2 3416 5 3759 1 4229
279 -0.396132 3.96972 11.8709 174 170 195 1.11889 2 3440 5 2888
648 -5.36778 0.87964 13.8525 118 84 47 0.875741 5 1214 1 583
281 -2.09732 4.15387 11.8075 178 175 192 0.302567 2 3466 5 3860 1 2907
283 -2.99566 5.50244 6.80067 131 110 89 0.113952 2 3500 5 5027 1 4771
652 -2.34011 1.32615 13.4165 42 47 41 1.91169 2 2968 1 3711
285 -1.33732 5.55673 6.86546 103 100 87 0.206552 2 3571 5 5262 1 4884
287 -1.7913 4.3943 10.3291 135 135 163 0.124237 2 3608 5 3950 1 3033
592 2.24772 -0.246022 13.7334 114 103 94 0.226449 5 4623 1 3414
289 -2.80159 4.38533 10.1587 142 139 156 0.155912 2 3615 5 3945 1 3031
291 -4.69396 4.43044 8.52206 216 207 214 2.76931 2 3734 5 4024 1 2275
293 -1.87161 4.64563 8.57452 121 110 126 0.249638 2 3798 5 4103
295 -4.76054 4.43567 7.75189 65 56 47 1.12755 2 3838 5 1461
600 -5.17124 -0.200117 13.6025 185 149 106 0.547851 2 1788 5 3272 1 3607
297 -4.73031 4.45942 7.61485 116 113 98 1.3957 2 3872 5 4090
299 -3.70506 5.48166 6.68046 72 63 49 0.0671344 2 3890 5 5421
604 -4.60019 4.57843 7.45064 151 160 155 0.27777 2 4770 5 2984 1 3688
301 -4.9814 4.58247 7.58794 86 65 34 0.204453 2 3915 5 5379 1 3249
303 -4.54276 4.66358 7.50819 177 179 178 0.978843 2 3956 5 1482 1 2313
305 -2.36909 4.82448 7.51928 130 119 115 0.136317 2 4034 1 2832
307 -1.48701 5.56822 6.81517 128 90 67 0.15259 2 4177 5 3123
676 -5.08008 -0.641533 13.6522 198 175 134 1.51428 1 1858 3 1609 4 1688
309 -1.48226 5.57196 6.79534 152 121 92 0.19756 2 4188 5 5461 1 3394
311 -1.62832 5.59002 6.74707 148 113 82 0.0758629 2 4234 5 3448
313 -3.58503 5.49472 6.55001 160 151 134 0.357796 2 4254 5 2311 1 4866
315 -2.53948 5.5519 6.62241 159 143 117 0.105807 2 4263 5 5255
317 -3.62465 5.52134 6.54464 156 147 132 0.52201 2 4276 5 5137 1 3366
319 -1.38477 5.61309 6.62729 164 156 142 0.122582 2 4305 5 4154
321 -3.13849 5.57074 6.54689 153 137 112 0.277921 2 4313 5 5242
323 -1.74017 5.62075 6.59211 87 54 37 0.0778771 2 4326 5 2476
325 -6.42513 3.99334 9.07934 149 141 130 0.39728 2 4362 5 3895 1 2980
327 -1.68602 5.62178 6.61243 106 74 51 0.136197 2 4385 5 2469
329 -1.95565 5.21376 7.64397 142 144 156 0.795519 2 4438 5 4473 1 4380
331 -1.32977 5.42044 7.30289 83 73 71 0.168837 2 4625 5 4879 1 4606
333 -0.136306 5.10533 8.58374 73 68 63 0.404097 2 4665 5 2732 1 1586
335 -1.32816 5.43911 7.23792 185 177 166 0.299182 2 4673 5 4922 1 2579
704 -1.02461 3.84056 12.9777 61 54 47 0.520937 3 245 4 198
337 -1.37217 5.45204 7.16053 170 164 150 0.93463 2 4710 5 4967 3 4025
339 -1.40621 5.47906 7.16998 111 103 90 1.1441 2 4725 5 4984 1 2610
341 -1.38609 5.48975 7.13526 104 94 82 0.167557 2 4757 5 5013
343 -1.94438 3.87759 4.59594 71 72 74 1.53599 2 4776 5 2184
553 -1.29845 5.38304 7.39148 135 133 120 0.351605 2 4573 5 2665 1 2519
344 -3.17738 5.44709 7.00501 80 62 26 0.220465 2 4783 5 4857 1 2586
712 -0.219612 5.20318 8.70205 9 4 3 1.32278 3 868 4 728
345 -1.46209 5.49084 7.06294 105 97 84 0.0460266 2 4797 5 5050
346 -4.12731 5.40806 6.91887 91 77 48 0.165547 2 4801 5 2180 1 2562
347 -3.2231 5.42179 6.93401 138 120 84 0.824724 2 4806 5 4872 1 2593
716 -11.4936 -4.99009 16.0098 135 108 63 0.437456 3 1592 4 1362
349 -3.43206 5.46335 6.93804 131 116 83 0.136203 2 4844 5 4744 1 2836
350 -1.53146 5.50901 6.99208 168 161 147 0.324289 2 4857 5 5120 3 2680
351 -1.29552 5.51659 7.00394 170 166 158 0.462412 2 4861 5 1815 3 2132
656 -4.18654 -0.844203 13.413 142 117 77 0.990376 3 124 4 68
353 -1.64648 5.50642 6.97847 90 81 68 0.0510441 2 4872 5 5105 3 4045
355 -1.59327 5.49177 6.92191 103 93 81 0.749265 2 4887 5 5458 1 4779
660 -4.49225 -0.333116 14.1412 213 220 207 1.41871 1 358 5 299 3 375 4 233
357 -5.1236 5.88439 12.2602 131 120 124 0.360844 2 4987 5 4029
664 -11.4822 -4.17875 16.232 144 112 61 0.339569 5 1265 3 1183 4 2389
361 -3.45517 5.5225 6.52829 11 10 5 0.289998 2 5014 5 2682
363 -4.43691 4.76708 7.23867 152 154 152 0.530426 2 5091 5 3026
668 -4.60974 0.543078 13.577 113 75 36 0.225752 2 2440 3 1213 4 1140
365 -5.49779 4.15402 8.27654 202 204 217 1.31483 2 21 5 20 1 11
367 -1.85531 4.88212 7.89835 193 198 217 1.27137 2 27 5 17 1 14
736 -5.09158 7.47111 12.7633 221 218 237 1.45271 3 3698 4 3788
369 -8.81874 2.79243 17.0777 69 42 12 2.33009 2 48 5 24 1 24
371 -5.40466 3.79439 9.7759 184 175 175 1.93732 2 20 5 63 1 43
740 -11.577 -5.80593 15.7637 188 158 106 0.00676863 3 1591 4 1360
373 -2.61676 1.75365 13.1467 112 99 65 1.34125 5 104 1 51
375 -11.3872 2.89306 18.2908 69 43 8 1.07369 2 41 5 105 1 57 3 162
744 -11.1846 -5.45805 15.6214 137 110 63 1.98077 3 726 4 2381
377 -7.97599 3.4219 13.9715 146 119 76 1.10761 5 112 1 82
379 -4.56311 4.55476 7.72205 71 61 51 1.23292 5 79 1 88
381 1.89332 1.597 13.8091 136 101 191 0.997697 2 98 5 159 1 104
383 -5.43035 3.49616 11.1509 38 26 10 0.837769 1 116 3 157
529 -8.87825 3.17879 14.4113 154 138 104 1.45531 2 4920 5 3567 1 1956
384 -8.76504 3.26779 14.4769 50 44 22 0.661498 2 117 5 108 1 128
386 -7.75904 3.60667 13.0966 12 19 38 0.864713 2 120 5 190 1 144
533 -10.7117 3.20238 14.7698 141 113 66 0.678822 2 3185 5 2808 1 1980
390 -1.38563 5.48085 7.11881 112 99 82 0.456123 2 261 5 344 1 200
537 -3.94029 4.14281 10.8991 132 114 112 0.220145 2 2650 5 2841 1 2205
392 -6.94598 2.40845 15.7202 0 0 0 0.530868 2 112 5 196
394 -3.10409 5.41246 7.15837 133 111 70 0.735654 2 259 5 353 1 226
541 -1.44346 4.38731 10.3446 163 160 189 0.106393 2 2680 5 2923 1 2233
396 -2.80614 5.45627 6.91309 131 103 63 0.280769 2 265 5 348 1 234
515 -4.44524 0.624373 14.0737 159 127 90 0.843286 2 2900 5 2742 1 1842
398 -3.13919 5.05913 8.05116 74 45 14 1.05539 2 201 5 380 1 244
399 4.91576 -3.37966 20.4166 254 253 226 0.896786 2 513 1 254
400 2.32388 -0.159721 13.9166 123 117 101 0.627371 5 276 1 257
402 -0.308541 4.47168 10.8732 187 187 221 0.99083 2 307 5 395 1 273
613 -2.82968 1.41006 4.63988 102 54 46 0.171344 2 3134 1 3871
404 -7.75149 3.4631 14.328 148 121 78 1.27048 2 228 5 553 1 280
406 -8.05458 4.37434 11.333 99 91 78 0.972688 2 303 5 330 1 291
617 -10.0231 3.14711 14.0775 143 116 69 2.13833 5 3545 1 3936
408 -5.25652 3.96705 9.46647 190 184 188 0.493999 2 306 1 296 5 565
410 -4.11325 5.04354 7.38543 114 98 72 0.926346 2 475 5 241 1 320
621 -6.10488 3.42814 13.039 144 128 95 1.3293 2 2576 1 4042
412 -3.23625 5.47028 6.91271 104 82 45 0.236728 2 266 5 400 1 338
414 6.69301 0.207872 20.6805 255 255 228 1.67944 2 1310 1 360
561 -2.98409 5.49139 6.84392 117 96 67 0.184166 2 1197 5 2265 1 2675
416 -8.49249 3.35534 13.9713 26 20 11 0.313598 2 390 5 623 1 369
720 4.58015 2.52467 11.8528 118 108 100 1.6692 3 2575 4 1620
417 -4.29769 1.63783 13.6658 113 63 33 1.26373 5 392 1 385 3 228
418 -5.24617 -0.281404 13.8061 178 143 101 0.642006 2 281 1 389
565 -1.56388 5.55768 6.9527 168 156 134 0.516503 2 3228 5 5196 1 2726
420 -3.70366 5.44071 6.80998 110 91 61 0.640942 2 1018 5 887 1 425
421 -1.36523 5.4543 7.21955 166 160 134 0.233239 2 444 5 489 1 427
422 -1.45557 5.37428 7.26069 194 195 199 0.480571 2 626 5 781 1 437
423 -1.2771 5.43125 7.29282 72 59 50 0.398671 2 628 5 782 1 490
569 -3.72846 5.57923 6.5872 164 152 136 1.03459 2 2356 5 2331 1 2782
424 -2.93832 5.47876 6.89492 79 58 28 0.389943 2 653 5 788 1 499
426 -2.9643 5.49898 6.8049 52 30 6 0.22283 2 670 5 924 1 508
573 -8.00717 4.43837 11.1094 45 34 22 0.554716 2 4700 5 3861 1 2943
428 -4.33594 5.50423 6.43724 91 74 54 0.345897 2 721 1 525
432 1.64311 2.48617 14.7145 94 67 84 0.878964 2 791 5 318 1 597
513 -11.5182 -2.15772 16.7894 124 99 45 0.576559 2 2399 1 1826
434 -7.58727 3.24782 14.4927 100 76 42 0.387271 2 547 5 613 1 599
517 -5.07374 -0.0407461 13.7055 169 136 101 1.69054 2 1307 1 1875 3 1615 4 2456
436 -0.891713 4.92356 9.02554 35 26 21 1.12283 2 585 1 631
438 -2.05635 5.21309 7.72521 78 78 81 1.02512 2 828 5 744 1 649
521 -11.8813 -2.77465 17.2321 213 186 131 0.766368 5 2686 1 1886
440 -4.72131 5.2505 6.73645 134 138 137 0.72893 2 1152 5 764 1 677
442 -11.2426 -9.49122 14.3281 129 96 34 0.920742 2 731 1 693
525 -8.28719 3.11662 14.5058 158 130 92 0.900682 2 2546 1 1931
444 -1.91558 5.23119 7.77265 113 113 121 0.340163 2 1660 5 895 1 763
446 -4.10618 5.25109 7.32593 96 90 66 0.452196 2 1692 5 899 1 773
593 -11.7519 0.334288 17.877 115 90 37 2.10821 5 3315 1 3416
448 -3.10471 5.33511 7.27734 145 125 90 0.432488 2 4581 5 1106 1 794
450 -1.7988 5.34679 7.31608 198 199 204 0.33818 2 1096 5 2177 1 805
452 -1.30288 5.41415 7.33923 160 159 141 0.680998 2 971 5 1694 1 821
454 -2.52713 5.37177 6.97935 95 87 69 0.126651 2 993 5 884 1 839
601 -5.14953 -0.158454 13.6137 96 60 20 0.67668 5 3273 1 3609
456 -3.31629 5.48944 6.87886 93 73 38 0.109436 2 1015 5 1730 1 858
458 -4.73786 5.21382 6.68011 182 186 185 0.405826 2 2050 5 510 1 873
605 3.45927 1.02598 18.1973 233 169 205 1.48536 2 2296 1 3696
460 -2.36105 5.42966 6.77045 101 100 96 0.404429 2 1021 5 931 1 880
462 -4.75075 5.2508 6.63155 136 140 139 0.720056 2 1162 5 770 1 885
464 -3.92247 5.51967 6.56152 191 177 168 0.579716 2 1259 5 938 1 921
466 -6.31726 4.02764 9.18391 152 143 127 0.318048 2 859 5 1422 1 965
677 -5.16471 -0.0242817 13.633 191 162 118 0.790716 5 1224 3 1614 4 971
468 -6.2467 3.91198 9.39386 160 148 134 0.262986 2 848 5 1169 1 975
470 -7.92315 4.01134 11.9119 182 162 135 1.52786 5 1178 1 985 3 1084
472 -7.20377 3.82332 12.6413 171 151 124 0.548656 2 557 5 1187 1 995
474 -2.37331 5.39945 6.89244 173 169 160 0.108668 5 1738 1 1110
476 -2.77864 5.48568 6.84558 151 107 73 0.285046 2 1194 5 1770 1 1141
478 -1.38028 5.53058 7.1193 172 161 141 1.38975 5 5067 1 1234 3 4102
625 -4.71487 3.72359 13.9704 74 56 36 0.846406 2 3292 5 3676 1 4079
480 -11.2569 -8.91585 14.4811 132 98 35 1.58271 2 2351 1 1240
482 -11.3851 -8.53383 14.852 122 93 33 1.96737 2 2354 1 1242
629 -6.37362 3.76998 12.5387 147 139 129 0.64569 1 4139 3 2380
484 -11.3523 -7.43623 15.0815 121 96 39 0.697484 2 1326 1 1246
486 3.5078 -4.94684 16.7905 244 253 178 0.264113 5 2026 1 1269
633 1.00425 5.167 8.47596 162 162 162 0.149331 5 5432 1 4250
488 -11.5211 -2.98271 16.6015 127 99 51 1.21189 2 1343 1 1316 5 2684
490 -4.96827 0.303018 13.4193 179 136 63 0.674952 2 1359 5 3313 1 1359
637 -1.48047 5.44556 7.19457 136 130 104 0.225674 2 4693 5 2240 1 4635
492 -4.27435 1.54195 13.7086 119 70 52 0.52833 2 1945 5 1206 1 1389
494 7.54978 2.41814 25.4035 245 255 219 0.328411 5 1333 1 1402
577 -3.86804 4.35056 9.42987 180 178 200 0.397273 2 3668 1 3060
496 -5.33098 3.11226 14.4621 74 42 31 0.342953 2 1065 5 1353 1 1438
498 -0.168284 4.62512 10.4326 160 157 177 0.317098 2 2694 5 1441 1 1537
581 -3.6097 4.3282 8.29831 133 128 136 1.84385 2 3746 1 3143
500 -4.46942 5.02396 7.14157 67 78 70 0.55136 2 4484 1 1630
502 -3.68936 5.31109 7.45038 33 15 0 0.845538 2 1685 5 4493 1 1659
585 -4.29367 4.49984 7.61664 85 72 64 0.77207 2 3886 5 4104 1 3236
504 -4.76331 5.0411 6.63459 166 156 144 0.693756 2 4652 5 1615 1 1676
506 -1.44118 5.45463 7.26228 138 136 113 1.18878 2 1128 5 1716 1 1738 3 629
589 -4.59087 4.71681 7.22901 180 175 169 0.320691 2 4066 5 4215 1 3338
508 -11.3829 -7.82512 14.9411 218 188 126 1.20576 2 2761 1 1770
510 -11.6689 1.9308 18.211 104 78 27 1.49249 5 1315 3 3394 4 949
512 1.67975 2.46247 14.9473 128 116 104 1.99686 2 3084 5 3522 1 1822
514 -11.6349 -1.98083 17.053 125 100 46 0.737538 5 3246 1 1837
516 -11.7516 2.76045 18.463 210 185 144 1.21986 5 1325 1 1874 3 1650 4 1142
518 -4.25454 1.66598 13.8216 121 82 65 0.34787 2 3000 5 3378 1 1876
519 -2.49487 2.73785 13.3735 69 66 51 0.798315 2 3138 1 1879
520 -11.3519 -9.26663 14.6017 130 94 32 2.06752 2 732 5 4603 1 1881
522 -11.4028 -7.19608 15.2135 110 85 29 2.14892 5 2585 1 1898 3 1590 4 615
523 -8.57771 3.1964 14.8961 155 128 85 0.599295 2 2547 5 3557 1 1901
524 -11.793 -6.9983 15.9407 221 189 132 1.14102 5 2008 1 1903
526 -8.87752 3.1223 14.4527 149 125 91 0.966035 2 3172 5 2815 1 1946
527 -4.53752 0.599672 13.6193 114 80 42 0.948572 2 2293 1 1949 3 1214 4 954
528 1.71221 2.225 14.7661 119 87 137 1.1283 2 787 5 3488 1 1953
530 -4.90781 0.0656647 13.5438 101 67 34 0.62957 2 2291 5 2713 1 1957
531 -6.91815 3.20552 15.5802 54 36 22 2.13876 5 3565 1 1963
532 3.7119 -4.76701 17.5469 248 254 177 1.00358 5 199 1 1975
534 -4.49408 0.0519861 14.0335 254 234 207 0.602156 2 2422 5 3298 1 2035 3 2890 4 2466
535 -7.77924 3.47112 13.2059 123 111 84 1.54132 2 2578 5 2835 1 2106
536 -2.57854 4.18304 11.6694 187 179 187 1.29027 2 2630 5 3862 1 2197
538 -6.36777 4.02718 9.13115 162 152 141 0.370859 2 2684 5 2898 1 2215
539 -2.47108 4.32641 10.7069 175 171 185 0.616821 5 2907 1 2217 4 331 3 747
540 -3.40257 4.36613 10.3531 197 194 205 0.199691 2 2677 5 4127 1 2221
542 -0.637752 4.91714 9.08818 170 166 183 0.848614 2 3814 5 4147 1 2298
543 -1.99088 4.72274 8.08205 154 150 161 0.0815652 2 1721 1 2309
544 -4.58499 4.75508 7.18254 180 179 172 0.21922 2 4106 5 1515 1 2339
546 -1.38569 5.09199 8.18938 16 9 17 1.31913 2 1763 5 4627 1 2343
547 -4.55629 4.80429 7.14679 144 140 129 0.552929 2 4151 5 4252 1 2349
548 -4.00137 5.19143 7.44654 59 45 19 1.31457 2 950 5 1578 1 2397
550 -3.85164 5.34665 7.4229 11 5 0 0.161757 2 4546 5 2095 1 2443
551 -3.79052 5.35081 7.3324 88 73 45 0.149554 2 1946 5 5055 1 2460
552 -3.11209 5.27571 7.24836 103 87 54 0.746042 5 2122 1 2463
554 -3.50503 5.45113 6.96196 91 68 37 0.0960719 2 2084 5 2205 1 2590
555 -3.49971 5.46185 6.93749 128 109 77 0.469168 2 1169 5 2212 1 2606
556 -1.34099 5.48894 7.09671 121 108 89 0.480333 5 5040 1 2645 3 2682
558 -3.86191 5.47 6.76453 116 97 65 0.178256 2 2150 5 4921 1 2660
559 -1.58919 5.49865 7.0153 151 138 121 0.303176 5 5081 1 2672 3 2096
560 -3.81141 5.48139 6.74734 112 96 66 0.368846 2 2162 5 4942 1 2674
562 -3.19234 5.52308 6.77017 51 27 2 0.317789 2 3745 5 5034 1 2703
563 -3.71888 5.49671 6.65832 127 112 89 0.444027 2 4196 5 5015 1 2708
564 -2.80211 5.51537 6.78132 160 126 91 0.273571 2 3647 5 5083 1 2714
566 -3.74715 5.50113 6.62406 153 140 124 0.20662 2 1242 5 2285 1 2727
567 -2.41191 5.49302 6.70679 0 0 0 0.394527 2 1222 5 1821
568 -0.473878 5.56138 6.95274 103 99 88 0.456034 2 2134 5 2400 1 2764
570 -11.5179 -8.75521 14.9407 234 195 126 2.33913 5 2003 1 2801
571 -4.13999 0.816675 13.8567 135 109 77 0.977871 5 3334 1 2809
572 -0.511742 4.10116 11.7339 176 172 197 0.125561 2 3461 5 5349 1 2920
574 -7.51904 4.27237 10.6172 156 131 100 1.17201 2 4968 1 2947
575 -2.29848 4.24846 11.2551 153 147 158 0.519997 2 1510 5 3886 1 2954
576 -3.3921 4.30602 10.362 201 198 209 2.35369 5 3915 1 2999 3 1794
578 -4.99784 4.15027 8.56878 154 145 129 0.597977 2 2708 5 4636 1 3067
579 -5.73022 4.02188 7.78841 235 228 222 0.0243968 5 5361 1 3097
580 -2.16226 4.47798 9.56672 160 157 176 0.283685 5 4010 1 3100
582 -4.45582 4.43017 8.41528 203 188 172 2.11527 2 3748 5 4034 1 3149
584 -3.72364 4.58636 8.09586 234 221 226 0.546344 2 3839 5 2972 1 3220
586 -4.13771 4.60304 7.70756 75 66 61 1.21748 2 3900 5 4123 1 3254
587 -4.64881 4.64265 7.29744 126 119 101 0.199683 2 3999 5 4175 1 3303
588 -2.61065 4.75444 7.63826 208 204 205 0.198614 2 3972 5 4235 1 3327
590 -11.4901 -3.7188 16.2815 120 94 39 1.10418 2 2389 5 3230 1 3403 2 2794
591 1.2786 -0.776088 10.4999 127 121 87 2.71304 2 1305 1 3412
594 -2.42674 1.39776 12.9981 118 109 86 0.275332 2 2466 1 3421
595 -11.5129 -8.23021 15.075 229 193 131 1.08087 5 2052 1 3452
598 -4.66945 -0.738069 13.633 138 115 73 1.78484 1 3589 3 3298 4 2427
599 -5.28553 -0.616167 13.7261 134 109 68 1.17572 2 2814 1 3591 3 2878 5 2694
602 -11.5808 0.621597 17.6404 114 88 39 0.554942 2 2899 1 3649
603 -11.8322 0.75039 18.1461 120 94 45 0.645104 5 1241 1 3656
606 -4.49852 4.69467 7.3911 143 144 139 0.22265 2 4000 5 4183 1 3705
607 -2.32341 1.24287 13.0546 116 107 85 0.644833 2 2959 1 3707
608 -2.30225 1.28387 13.1759 50 50 37 1.07748 5 3362 1 3708 4 2597
610 -11.3034 2.92327 17.152 63 38 0 0.42896 2 3099 5 3457 1 3825
611 0.459576 5.30031 7.94926 143 142 140 0.28941 2 1849 5 4706 1 3836
612 -9.4623 2.89776 16.0454 111 82 44 0.419655 2 3108 5 3475 1 3851
614 -9.96623 3.01638 15.5021 137 110 63 0.384244 2 3132 5 3499 1 3877
616 -7.11815 3.21705 15.9525 54 40 15 1.87779 2 2537 5 2811 1 3926
618 -7.97848 3.23116 14.7738 71 45 10 0.666608 2 1444 5 3574 1 3946 4 1996 3 3550
619 -9.23314 3.3257 14.326 139 112 67 0.217267 2 3213 5 3583 1 3967
622 -9.66645 3.67527 13.4268 161 134 89 2.68688 2 4937 5 3640 1 4049
623 0.00518229 3.46505 14.6752 91 82 67 0.442666 2 3229 5 3671 1 4052
624 -9.16204 3.63682 13.1773 118 91 46 0.541404 2 1456 5 2838 1 4055
626 -9.62125 3.74241 12.5415 139 112 65 0.113113 2 4941 1 4094
627 -8.99734 3.75438 12.6381 111 84 39 0.368163 2 3365 1 4097
628 -6.35491 3.71511 12.903 186 162 136 0.930232 2 4939 5 2845 1 4109
630 -0.320393 3.83235 13.2281 49 42 36 1.02749 5 3782 1 4199 3 2543
631 0.464748 3.77512 13.1738 142 130 165 1.36545 5 2871 1 4203 3 1781 4 1582
632 -1.02386 3.91477 13.2488 114 110 99 1.10388 2 2595 1 4207 4 842
634 -0.551223 3.93744 12.9381 179 173 187 0.109081 2 4349 5 2877 1 4577
635 -4.6258 5.36479 6.84918 49 47 34 0.420586 2 4805 5 4743 1 4601
636 -4.59355 5.39414 6.77351 61 59 46 0.897285 2 2114 5 4786 1 4634
638 -3.76548 5.43666 6.87163 117 95 64 0.144386 2 2107 5 4854 1 4647
639 -1.36006 5.46973 7.16511 112 101 81 0.607622 2 4718 1 4657 3 4038
641 -2.99807 5.51064 6.78365 68 44 15 0.633276 2 3606 5 5036 1 4788
642 -1.70901 5.5194 6.93055 79 72 54 0.177946 5 5143 1 4793 3 4055
643 -3.32514 5.53942 6.74291 59 37 13 0.0393844 2 4187 5 5065 1 4814
646 -9.43882 3.06635 14.8904 160 133 88 1.57494 2 2539 1 3903 5 3529 1 1775
647 -8.07674 3.03352 14.8895 151 125 85 1.68573 5 107 1 80
649 -5.23068 4.28344 7.83722 102 89 81 0.643529 5 4032 1 3154
651 2.74179 -0.0166696 13.7678 107 115 74 0.491968 5 3309 1 3636
653 -1.13143 3.18806 13.2735 57 50 42 0.0301398 2 3225 1 4033
654 -9.42481 2.60216 14.6402 53 25 0 1.97692 2 3095 1 4894
655 -1.26506 1.80986 13.0119 99 111 123 1.31335 5 313 3 79 4 38
657 -0.532023 3.73688 12.4598 187 180 196 1.71646 5 326 3 152 4 81
658 2.07591 2.2537 14.0603 89 64 104 1.59929 5 283 3 238 4 150
661 -8.84763 3.1109 14.7335 51 25 10 0.678659 5 682 3 479 4 373
662 -3.05403 4.29952 10.67 190 183 191 1.48938 5 1425 4 261 3 750
667 -4.5203 0.0952498 14.016 128 102 72 0.855466 5 3302 3 1200 4 2471
669 3.11206 0.398929 10.1729 132 114 112 0.970568 5 1308 3 1243
674 -11.5675 -2.46492 16.7393 183 152 101 0.633558 5 3243 3 1599
678 -11.7078 1.99737 18.1833 160 133 86 1.51827 5 1967 3 1632 4 947
679 -11.7083 2.70787 18.5023 88 66 25 0.464196 5 3400 3 1648
687 -0.107368 4.08254 12.1933 195 188 214 1.2852 5 3858 3 2602 4 1613
689 -11.7072 2.09342 18.2934 111 84 37 0.306145 5 2769 3 2913 2 2474
691 -11.6295 -0.518595 17.4435 129 100 52 1.80539 5 4620 3 3300 4 2428
695 -11.68 1.45265 18.0896 117 90 45 2.68444 5 2747 3 3375
697 -4.62498 -0.449879 13.4378 163 144 118 0.40815 5 3259 3 4080 4 2438
703 -2.78741 4.04633 12.1094 133 112 93 0.143465 3 49 4 47
705 7.48098 2.45852 25.4921 0 0 0 0.213838 1 591 5 679
706 -8.41758 3.38687 13.7981 156 133 94 0.0330767 3 384 4 255
707 -6.9345 3.9202 12.7783 150 141 136 0.131836 3 378 4 260
710 2.03856 1.26842 13.6165 106 95 93 1.31791 3 1681 4 588
711 3.40131 4.43806 10.2654 131 119 103 0.462785 3 1978 4 724
713 2.49165 4.2781 10.8441 194 190 195 0.412481 3 1899 4 756
714 -11.4967 1.17792 17.7728 164 140 91 0.436737 3 3353 4 960
715 -0.592242 4.96213 8.72082 213 209 223 0.697644 3 1932 4 1065
717 -11.6523 -4.5803 16.2605 137 110 63 1.99814 3 1593 4 1363
718 3.46469 -1.86887 17.5762 106 113 97 0.186303 3 1602 4 1381
719 -11.5087 0.707852 17.6531 167 140 93 0.271658 3 3329 4 1395
722 -11.6365 -3.92508 16.3623 186 156 105 0.808058 3 1595 4 2394
723 -11.6343 -1.46545 17.0935 172 144 97 0.54725 3 1077 4 2415
725 -11.6892 0.413264 17.7003 172 144 97 0.499221 1 3642 4 2453
726 -4.78163 -0.0781467 14.0468 138 111 84 0.477163 1 1911 3 3316 4 2455
727 -2.09897 1.2597 12.5699 0 0 0 2.30145 3 808 5 2758
729 -0.0339153 3.57872 12.4661 208 196 207 1.99929 3 2547 4 2931
730 4.66741 3.89338 12.0127 119 114 108 1.40728 3 3691 4 3260
731 4.03919 1.88607 12.4786 107 102 92 0.588489 3 2417 4 3424
733 -2.23959 3.19237 12.8342 19 19 16 0.521755 3 2405 4 3487
734 -2.30267 2.42593 9.05746 151 137 106 2.01614 3 2391 4 3488
735 -4.03193 3.97523 12.8855 48 29 3 0.130268 3 4180 4 3745
737 3.37146 2.36555 22.8489 98 107 102 1.36674 3 793 4 1143
738 -5.07768 4.27152 11.7838 154 137 109 1.78451 3 26 4 18
739 1.98239 0.659277 13.7855 122 112 101 1.29557 3 861 4 577
741 3.39282 -1.51166 18.2207 216 226 200 1.21324 3 1411 4 1388
742 2.32933 -0.357732 13.2363 131 124 108 3.22009 3 2891 4 1411
743 -5.62 3.63141 11.2907 24 12 1 0.523778 3 2411 4 1524
745 2.44366 -0.108472 13.2385 94 79 72 1.05964 3 1623 4 2520
746 -11.5205 -3.68135 16.4072 135 111 65 0.417714 3 866 4 1366
747 3.39431 3.04671 23.2801 134 143 138 0.126587 3 2299 4 1510
