# 3D point list with one line of data per point:
#   POINT3D_ID, X, Y, Z, R, G, B, ERROR, TRACK[] as (IMAGE_ID, POINT2D_IDX)
# Number of points: 665, mean track length: 3.26319
538 3.51954 3.83222 15.5156 68 48 60 1.36083 7 2926 4 4916 5 3578 1 3747
1418 4.13916 5.96026 12.9089 77 67 73 1.83417 4 769 5 562 2 1689 1 448
539 -1.76392 3.90273 15.4912 73 55 55 1.52048 7 2931 4 4886 2 4188 6 2428
1935 5.72563 4.96591 14.091 186 169 161 1.20343 7 1899 5 3573 2 9505 1 1523
540 4.37692 3.84183 15.4709 169 145 135 2.0831 7 2939 4 4915 5 3689 3 3197
1929 6.90561 4.14207 15.0896 206 189 182 0.961987 4 2992 5 3536 2 3662 7 2080 1 1568 3 2926
542 -0.364366 3.92959 15.4388 74 59 65 0.88178 7 2951 4 2964 5 2424 2 9177 6 2056
543 5.859 3.86505 15.4215 90 73 81 0.579582 7 2957 4 2946 5 3530 3 1584
544 0.740861 3.94513 15.4646 130 111 107 1.80569 7 2960 4 2965 1 2462 6 3403
546 6.01324 3.8723 15.421 142 125 125 1.62802 7 2964 4 2947 5 4021 2 3666 1 1706 3 2977 6 942
3933 10.1478 4.77213 14.219 170 149 148 0.939232 5 3783 7 6120 2 9987 3 4481
1362 0.566089 6.44544 12.2524 53 52 58 2.02409 4 671 5 324 2 648 1 299
547 2.66234 3.96726 15.4802 186 157 153 1.0215 7 2969 4 7663
2253 -0.0200785 5.09474 13.9832 128 108 97 1.37215 4 8261 5 6339 1 6803
1879 -2.72562 4.90248 14.2525 60 51 53 1.24055 4 4575 5 2816 1 3933 6 3301 7 10608
548 4.0039 3.92634 15.397 172 143 139 0.849458 7 2970 4 4893 5 3733
2246 -0.502605 4.83746 14.3355 142 120 99 0.809299 4 8124 5 6271 6 5467
1873 -1.58541 5.10556 14.0011 84 68 71 1.24237 7 6206 5 2788 6 1588
1216 5.97727 4.67208 14.4562 165 140 136 1.44025 7 10468 4 8009 5 8453 1 3197 3 5098
550 2.08305 3.98078 15.3836 176 155 154 1.01409 7 2980 4 2971 2 3924
551 2.22841 3.97968 15.383 177 153 151 1.08564 7 2981 4 2972 2 3910
2241 -0.780439 4.65822 14.6302 55 44 51 1.73739 4 8035 5 6191 2 7777
3414 9.91837 3.4723 15.7694 168 141 134 1.83156 5 5809 2 5805 3 2497
552 4.7702 3.94772 15.3446 88 67 76 1.45019 7 2984 4 4133 5 3982 2 3757 1 1656 3 1667 6 1012
2250 0.564794 5.17022 13.8546 75 54 49 1.45535 4 6147 5 6299 1 4260 6 5938
3931 5.03509 3.17679 16.289 188 159 153 1.50899 5 3716 7 2742 2 9982 1 2538 6 1610 4 3581
554 2.12472 4.01462 15.3104 121 98 108 1.46443 7 2989 4 4867 5 4024 2 9425 1 3809 6 1597
1370 1.55302 2.04373 17.8037 62 51 55 1.39133 4 212 5 373 1 103
555 -1.03373 4.05789 15.2895 66 52 58 1.46288 7 2995 4 7729 2 4168 6 1417
1887 2.4655 6.61328 12.0134 82 66 66 0.704957 4 3697 5 2885 2 8323
556 4.08626 4.05038 15.334 88 63 69 0.187061 7 3002 4 4865
1881 1.20023 6.06342 12.7166 124 109 102 0.921822 4 5159 5 2826 2 8274
1224 6.43373 4.74587 14.3168 175 146 140 1.85432 7 10554 4 8047 5 8430 1 4766 3 8462
558 2.97237 4.06905 15.2536 163 142 139 0.57778 7 3008 4 7716
559 2.95567 4.11046 15.181 92 70 83 1.41911 7 3029 4 2989 1 2049
560 -1.11567 4.16778 15.2154 93 77 77 2.23234 7 3031 4 4820 5 5295 6 1431
562 5.02023 4.07978 15.055 164 141 137 1.34576 4 2985 2 5136 3 1662
3292 7.14646 3.01365 16.4595 115 94 104 0.660075 4 1592 2 5088 7 2269 3 1759
4013 4.72231 -0.806031 19.7236 152 153 148 1.37133 7 12506 2 6915 1 5624
1442 3.44802 6.58718 12.0743 56 53 60 0.865339 4 800 5 676 2 1617 1 476
563 -2.48741 4.18322 15.1203 60 53 60 1.98358 7 3045 4 3010 2 4321 1 2374 6 2438
2269 4.0018 0.18717 19.9105 45 36 41 0.879579 4 3192 7 5372 5 6877 2 7037 1 2832
1959 5.50675 1.41503 18.4622 118 107 105 1.63646 4 3809 2 7190 1 2329
564 -1.57272 4.1402 14.996 107 90 87 0.634839 7 3046 2 4244
2262 0.522718 5.39072 13.5869 68 52 53 1.55194 4 8410 5 6372 6 3360
1953 1.17393 2.83525 16.7612 72 59 68 1.57169 4 3490 5 3659 2 3767 1 3010
1232 -0.518706 4.93709 14.2752 81 71 79 0.136828 4 8171 5 4503
566 -2.09992 4.22456 15.0759 62 50 52 1.77228 7 3055 4 3013 2 4296 1 4028
567 -0.108037 4.29287 15.3111 140 115 108 0.340181 7 3058 2 4139
2257 3.17081 6.01459 12.7922 48 38 46 0.7062 7 11691 5 6356 1 4883
3494 13.1784 -1.59238 19.8786 120 137 144 1.23899 2 6638 3 3790
568 2.3175 4.2032 15.0566 142 120 122 0.858731 7 3062 4 4811
570 -1.44113 4.2633 15.0233 92 80 82 1.67432 7 3077 4 3022 2 5094 1 2420 6 1430
1450 1.44556 6.80435 11.845 121 103 91 2.38332 4 812 5 732 2 1765 1 873
571 -0.060414 4.35089 15.3124 111 91 84 2.37192 7 3081 4 4794
1967 0.985306 1.50797 18.4199 93 78 76 1.9163 7 4683 5 3721 4 2704 6 3515
572 0.101384 4.26253 15.044 117 97 90 1.62414 7 3082 4 3015 5 1745 2 4129 1 2479
1961 7.08972 4.45789 14.7071 95 83 83 1.00567 7 3180 5 3696 1 1531
1240 2.26886 5.00017 14.0559 161 141 142 1.08695 7 10763 4 8198 5 5907 1 4410
574 4.04273 4.28023 14.9137 140 119 126 0.0159097 7 3097 4 7825
575 -1.1467 4.3547 14.9545 104 87 81 1.6516 7 3098 4 3034 5 2578 2 2831 6 3151
576 5.32319 4.30488 14.8671 51 37 50 0.493931 7 3112 4 4785 1 4168 3 3165 6 899
578 4.32331 4.35347 14.8581 158 137 136 1.40695 7 3127 5 3569 2 9547 6 947
4093 -1.36315 4.84069 14.3466 83 68 73 1.81775 7 1214 1 688 6 305
1522 11.108 3.15415 16.156 92 91 99 0.540779 5 1051 2 608
579 5.38169 4.36675 14.8871 128 111 113 0.114414 7 3129 4 3027
2039 4.75899 4.73555 14.3759 76 63 70 0.403548 4 4664 5 4029
580 6.71753 4.3472 14.8346 138 117 116 1.50286 7 3134 4 3024 5 3680 2 9790 1 1555
2033 3.39964 4.11463 15.1834 90 72 72 1.98896 7 2099 5 4000 2 3860
582 0.921095 4.43795 14.7986 70 54 61 1.55062 7 3142 4 4742 5 2453 2 7941 1 3276 6 1615
583 1.41575 4.43481 14.8061 165 145 142 2.04094 7 3143 4 4745
3574 8.15683 0.952235 16.1786 194 217 240 1.89288 4 6698 2 6978 3 3982
584 5.99887 4.38843 14.7827 157 136 131 1.06873 7 3144 4 4761 1 1780 3 3377
4091 6.68222 2.11193 17.3005 117 107 114 2.6227 7 2381 1 667
1530 4.58602 2.37725 17.3156 128 117 113 1.03736 7 512 5 1075 6 239
587 -1.88156 4.50134 14.7418 105 91 87 1.17378 7 3166 4 1870 2 4355 1 2433 6 1448
588 -2.00655 4.51409 14.7302 105 91 90 1.53905 7 3170 4 4710 6 1444 1 2430
2041 5.08417 4.83673 14.2271 146 129 122 1.2128 7 6646 5 4037 2 9465 1 4658
590 5.95968 4.43028 14.7389 82 59 69 0.964322 7 3172 4 4752 1 1785 3 3091
591 2.40207 4.51318 14.7301 148 126 129 1.78482 7 3183 4 1863 2 4009 6 1772
1315 0.735758 5.06342 13.8785 138 119 105 0.861496 5 59 2 129
594 1.60909 4.56409 14.6161 89 74 81 2.31865 7 3205 4 4708 5 4211 1 3692 6 2143 2 9180
1474 0.0981381 5.06557 13.9946 89 68 65 0.271127 4 713 2 2101
1985 5.3628 2.95057 16.6057 169 159 160 2.23878 4 7218 7 2292 5 3814 3 1512
598 -0.0562364 4.62101 14.5805 110 94 94 1.05452 7 3216 4 4684 5 2560 2 4224 6 1580
3367 15.6134 3.11121 15.9945 71 64 80 0.595395 7 1074 2 5632 3 2155
1828 1.81174 5.00183 14.0909 127 107 98 0.952209 4 4570 5 2522 1 1691 6 1862
599 2.47032 4.6277 14.5388 126 101 105 1.12742 7 3223 4 4692 5 4162 2 9252 1 2080 6 1815
3526 10.539 -0.67704 18.0065 188 178 160 1.04406 7 4557 2 6765 3 2064 5 6656
1323 1.94865 2.10946 17.6159 61 51 60 0.997814 4 105 5 100 2 105 1 60
602 6.10415 4.61087 14.4905 117 92 96 1.5036 7 3233 4 1876 2 7612 1 1829 3 3103
1482 0.945477 5.81033 13.0643 62 52 60 1.31922 4 1313 5 857 2 2694 1 783 6 740
603 2.90311 4.64459 14.3839 185 161 159 1.53859 7 3240 5 4143
3880 8.19448 4.78597 14.2852 162 141 138 0.969737 7 3313 2 9800 3 2883
606 2.91024 4.69761 14.4326 131 111 112 1.27483 7 3254 4 4668 5 4151 2 9278
1836 6.66147 6.52088 12.1256 110 107 114 0.77928 4 2180 5 2575
607 2.42451 4.71337 14.4261 187 160 151 1.18777 7 3259 4 4659 5 4192 2 9219 1 3611 6 1000
608 2.88608 4.7459 14.383 152 132 133 1.34814 7 3275 4 4650 5 4166 2 9258
610 0.425185 4.78567 14.3687 140 120 121 1.41615 7 3280 4 4625 2 5172 5 2571 6 1687
3997 -0.0283358 3.99414 14.5621 135 102 85 2.0518 4 2999 2 4116
611 0.24396 4.79971 14.3892 144 129 122 0.900222 7 3281 4 1913
1943 5.77773 4.63316 14.4924 129 107 109 1.08748 7 3236 5 3626 1 1811 3 3162
612 1.37709 4.79072 14.3534 160 140 133 2.1132 4 1907 5 2499 2 4156 1 950 6 2115 7 3284
1937 9.48309 5.21533 13.7289 80 98 122 0.798507 7 3472 5 3581 2 9793 3 4663
614 4.79376 4.76244 14.327 184 156 152 1.0554 7 3286 4 1900 2 3895 1 1566 6 731
615 5.06427 4.76627 14.345 185 156 148 0.148527 7 3287 4 4655
3478 12.1711 -2.90266 17.6191 197 198 192 0.722686 7 4249 3 3695
616 5.16945 4.76351 14.3382 184 155 151 0.0743563 7 3288 4 4654
3995 5.16642 5.14778 13.8969 82 65 71 1.29783 7 1378 2 3955 1 1522
618 -0.412361 4.82284 14.3538 117 102 99 0.997077 7 3292 4 1928 5 1435 2 4299
1434 9.72392 3.77484 15.4581 107 98 105 1.38353 7 417 5 641 2 983 3 580
619 -2.04877 4.83384 14.3235 91 85 85 1.18095 7 3295 4 4595 2 8277 1 2471 6 1506
620 6.08576 4.76535 14.3033 163 134 127 1.2489 7 3296 4 4263 5 3859 2 9600 1 1847 3 3143
1945 4.08898 0.797354 19.223 87 75 77 1.32616 4 2662 5 3636 2 5709
622 5.35672 4.78737 14.2665 72 51 60 0.186101 7 3301 4 4643
623 -0.357395 4.85194 14.2991 75 58 66 1.1555 7 3302 4 4599 2 8260 1 991 6 1135
624 6.91625 4.78844 14.3212 172 144 131 1.08698 7 3305 4 1896 2 3785 5 2256 3 3025
626 3.12114 4.82387 14.2851 184 160 155 0.315073 7 3308 4 1917
627 5.24025 4.83362 14.2428 157 136 131 1.12834 7 3317 4 4624 5 3575 1 1822
2023 2.477 3.99257 15.312 141 113 102 0.954718 7 7176 5 3968 2 9462 1 3794 6 1620
628 6.95641 4.82315 14.2719 132 103 97 1.41213 7 3321 4 4648 5 3871 1 1499 3 3029
630 3.91985 4.86001 14.2402 142 123 125 1.28471 7 3328 4 1927 5 4121 2 9351 1 1759
631 6.49778 4.83333 14.2288 81 59 64 1.57785 7 3329 4 4632 5 3622 1 1858 3 3092
3558 10.8973 0.738033 16.3955 154 177 195 1.74653 7 4653 2 6882 3 6092
632 0.0511027 4.92018 14.2148 75 62 69 0.090926 7 3336 4 1944
634 6.36431 4.88534 14.1787 157 132 125 1.09889 7 3341 4 8109 5 8485 1 3207 3 3125
1514 5.62514 5.91295 12.9012 72 72 82 1.6766 4 764 5 996 2 1647
635 5.27785 4.90089 14.1715 200 170 168 1.00502 7 3343 4 4602 5 4041 2 9467 1 1835
2031 2.49164 3.87238 15.4894 143 122 117 1.88907 4 7625 7 6388 5 3997 1 3823
636 1.23567 4.9553 14.1849 144 125 122 1.50689 7 3347 4 8172 6 1803
2025 6.1675 3.79597 15.5345 182 163 156 0.97943 4 3149 5 3973 2 9786
638 2.45891 4.94464 14.1212 68 56 70 0.901638 7 3352 4 4578 5 4240 1 3556 6 1895
639 5.10235 4.93526 14.1306 157 132 126 0.477292 7 3353 4 1938
1814 3.20227 4.90823 14.1393 178 156 145 0.76327 4 2513 5 2423
641 1.66653 4.98961 14.1191 97 74 79 1.52864 7 3363 4 4572 5 4325 6 3578
1299 2.43904 6.08564 12.756 86 71 78 1.75197 7 11739 4 5148
643 0.306802 4.99869 14.0832 121 102 96 1.02749 7 3368 5 5426 2 7884
645 2.15966 4.99339 14.0609 159 139 133 0.953467 7 3375 4 4569 5 4273 2 9110 6 683 6 2119
646 2.61875 5.00971 14.0616 123 112 120 0.802373 7 3378 4 4568 2 9150 1 3526
3351 11.4492 0.690317 16.4653 160 178 193 1.11179 7 2460 2 5551 3 2105 5 6733
1812 1.96124 4.45666 14.8087 133 115 103 0.932621 7 3154 5 2408 6 1068
647 2.91733 5.00803 14.053 76 61 73 0.824334 7 3379 4 4567 5 4219 1 1745 6 902
1822 5.48141 5.89549 12.9384 88 85 94 0.0928244 7 3734 5 2493
649 6.83273 5.00782 13.9799 97 75 77 1.57078 7 3394 4 1947 2 9599
1307 1.26471 6.41474 12.2642 89 73 74 0.718689 4 58 5 25 2 65
650 -0.311407 5.13506 13.9559 73 63 74 0.763744 7 3408 4 4543 5 2727 2 8080 1 3691 6 1727
651 2.2072 5.10497 13.9019 83 66 74 0.897001 7 3415 4 4549 5 4310 1 3528
3864 7.67202 4.93654 14.0783 197 172 165 1.13945 7 3370 2 9702 1 3271 3 2962
653 6.12383 5.11013 13.9235 105 86 88 1.28447 7 3430 4 4561 5 4035 2 9499
3858 4.02424 3.85966 15.4651 213 181 168 1.80854 5 8332 7 7238 2 9675
654 3.8951 5.17123 13.8444 54 43 60 1.0239 7 3437 4 4546 5 2431 2 9228 1 3164
1820 0.322179 4.28401 14.8451 165 142 124 2.41807 7 3092 5 2457
655 2.90165 5.20596 13.7874 146 134 135 0.69737 7 3450 4 1994 2 4133 5 2500 1 1775 6 882
1894 -1.33759 5.73867 13.2323 74 68 72 1.84003 4 8566 5 2933 2 8546
657 -1.0028 5.28652 13.7889 84 82 96 1.82433 7 3464 4 4504 5 2792 2 2536 1 2605 6 3820
1379 4.25368 4.86172 14.2206 94 87 95 1.81018 7 590 5 410 2 853 1 246
658 5.27745 5.23511 13.7424 129 105 105 1.0775 7 3465 4 4536 5 4125 2 7797 1 1505
659 5.57273 5.236 13.7345 79 60 66 1.11594 7 3468 4 1991 5 4104 1 1885
661 7.55028 5.23093 13.7119 118 102 105 0.978871 7 3475 1 1945 5 3567
662 3.59702 5.27127 13.6857 120 109 115 0.935287 7 3478 4 2013 5 2470 2 9163 1 1471
3431 2.81636 1.70229 18.2496 127 94 87 1.13536 4 2723 7 2512 2 5870
1892 -1.05886 5.79636 13.2209 55 49 59 0.299911 5 2928 2 8509
663 6.02633 5.27709 13.7003 136 116 115 1.10927 7 3481 4 1997 5 2363 2 3923 1 1467
1902 2.41106 6.96041 11.6225 51 46 53 1.19865 4 5494 5 2985 1 5090
665 2.50942 5.30573 13.6731 55 44 60 0.815345 7 3487 4 4512 5 2552 2 9050 1 3454 6 884
1387 3.91604 6.42655 12.2429 65 62 69 1.41354 4 667 5 445 2 1172 1 275
666 2.6206 5.32442 13.6584 116 106 114 0.720828 7 3494 4 4506 5 2550 6 814 1 1571
667 7.689 5.28003 13.6136 66 54 64 1.86581 7 3499 4 4532 1 1407
3944 4.83483 3.03173 16.473 82 52 44 1.17497 4 7263 5 7422 7 5954 3 4925 6 2135
669 3.00794 5.3771 13.5773 72 60 72 0.329263 7 3522 4 2025 5 2535
3938 11.9311 5.29378 13.4528 161 143 143 1.26009 7 1787 2 9995
670 4.80843 5.38519 13.5594 60 48 60 1.03894 7 3525 4 4500 5 4200 2 9260
1900 0.117244 6.30104 12.4417 56 45 49 1.68295 4 5081 5 2980 2 8593
671 -0.549822 5.43093 13.5655 120 113 120 1.63933 7 3532 4 4463 5 2797 1 1649
1331 0.674504 3.34861 16.1432 120 101 102 1.91586 4 104 5 143 2 149 1 91 7 112 6 93
674 0.187384 5.47914 13.5062 117 105 112 1.03037 7 3549 4 4454 6 974
4061 2.17044 3.60747 15.7871 148 128 129 0.268135 2 866 7 425 1 343
1490 2.48882 6.33759 12.4432 54 48 55 2.29007 4 1285 5 874 2 2696
675 2.65214 5.45726 13.4823 74 61 68 1.00083 7 3550 4 4470 2 4215
2001 9.65876 4.25432 14.9121 182 170 170 1.32587 7 1624 5 3869 2 6762 3 2638
678 -0.961439 5.52258 13.4649 103 100 117 1.60705 7 3562 4 2055 5 1431 2 4501 1 1647 6 1031
3383 7.3645 1.69755 18.0726 159 138 143 1.93812 4 2728 5 5681 2 5698
1844 5.77574 6.50826 12.1732 120 119 124 1.83601 4 2556 5 2644 2 9010 1 2023
679 4.86272 5.4908 13.4504 79 67 79 0.0410954 7 3565 4 5007
3542 10.1791 -0.268018 17.6208 140 168 189 0.659264 7 4589 2 6818 3 3320
1339 0.73865 4.22568 14.9772 156 135 118 1.92021 5 195 6 110
682 -0.500407 5.56058 13.5065 76 69 87 2.25722 7 3578 4 2058 5 1405 2 4480
1498 2.52411 6.54156 12.1185 118 101 86 1.32762 4 1251 5 898 2 2667 1 1423
683 4.81171 5.52328 13.4147 41 29 41 0.981646 7 3582 4 4466 5 2458 2 9217 1 1894
2009 4.32087 3.75469 15.6573 152 131 126 1.54329 5 3893 3 3189
686 1.728 5.56903 13.4782 93 83 91 2.37416 7 3592 4 2051
1852 2.31158 5.6802 13.2504 101 91 87 1.29271 7 3648 5 2684
687 7.04363 5.5197 13.4115 87 70 76 1.53237 7 3594 4 4479 1 1960 3 5113
1798 3.11272 4.38607 14.8404 182 163 158 1.1902 4 4755 5 2350 1 1652 6 1021
689 5.09515 5.54528 13.3389 58 50 60 1.18524 7 3608 4 4458 5 4213
1283 6.63498 5.61462 13.2815 95 84 92 0.801267 7 11381 4 8451
690 3.67726 5.56633 13.3719 78 65 72 0.401123 7 3609 4 4448
691 2.55028 5.57253 13.3521 72 59 67 0.782327 7 3611 4 4434 5 2633 2 8961 1 1818
693 5.09088 5.5924 13.3102 87 76 75 1.50589 7 3627 4 2050 5 2456 2 9222 1 1461
694 0.692982 5.6429 13.292 68 59 74 1.32179 7 3631 4 2067 5 1667 2 4408 1 1747 6 903
3335 10.5021 -0.810118 18.0971 166 154 140 0.390525 7 4539 2 5488 3 2056
1796 4.77341 4.79909 14.1264 80 62 75 0.309979 5 2344 6 725
695 1.64602 5.6214 13.2458 65 55 64 1.56118 7 3632 4 4410 5 2718 2 4335 1 1784
1806 2.90778 4.5474 14.6434 81 64 72 1.83371 4 2539 5 2382 2 9341 1 1668 6 1829
697 -0.469416 5.65216 13.3015 105 104 120 1.71185 7 3634 4 2077 5 2842 2 4494
1291 3.14688 5.96348 12.8474 54 41 48 0.77496 7 11658 4 8610 5 4510
698 0.392741 5.66488 13.2867 52 53 73 1.44391 7 3635 4 2076 5 1686 2 4435 1 1601
699 6.17406 5.62048 13.2626 78 66 75 0.0983632 7 3637 5 3136
3848 7.87598 5.33364 13.5573 87 70 79 0.924178 5 2291 3 3005
701 2.37402 5.65732 13.2158 89 74 79 1.30928 7 3643 4 2066 5 2668 2 8515 1 1831
3842 7.91517 5.4779 13.3891 62 44 56 0.916054 5 3924 7 1761 2 9559 3 3021
702 0.737557 5.70575 13.2019 54 54 72 0.868525 7 3659 4 4385 5 2772 1 3483 6 1975
703 -0.81349 5.73208 13.1593 81 82 100 1.51132 7 3670 4 4370
1878 3.04056 6.52475 12.1501 127 115 99 1.36752 4 4736 5 2815 2 8192
705 0.451573 5.73447 13.1664 55 60 79 1.07866 7 3672 4 2095 5 1390 2 4450 1 3501 6 1953
2087 5.72595 6.27517 12.504 65 65 75 1.19069 4 5186 5 4374
1363 0.933865 6.53882 12.1729 94 83 81 1.384 4 469 5 326 1 292
706 3.56797 5.72521 13.1601 143 125 113 0.769812 7 3673 4 2079 2 4201 5 2594
707 5.18984 5.75791 13.2246 87 76 83 0.090866 7 3676 4 8510
709 6.64279 5.71776 13.1204 49 37 49 1.85362 7 3680 4 4991 5 4154 1 1977
710 3.46545 5.82126 13.0216 53 40 47 1.14815 7 3703 4 4373 5 2627 2 8986 1 1886
2084 0.153033 4.63425 14.5825 107 86 79 1.14506 7 6831 5 4346 2 9012
3415 5.64385 2.15884 17.4863 66 45 62 1.82083 4 2757 7 2386 3 2766 1 2425
1061 0.156729 5.44644 13.5347 82 73 84 0.319146 7 7668 4 5089
1886 0.488171 6.03663 12.7673 114 97 90 0.592536 4 4307 5 2880 2 8369
713 -1.37878 5.88385 12.9688 67 74 93 2.20047 7 3722 2 4648 6 1852 4 4333
1371 7.19758 3.58994 15.7801 176 158 148 1.21429 4 313 5 374 3 266
714 -1.52917 5.94046 13.0636 71 78 97 0.666355 7 3723 2 4671 5 1550
2088 2.48899 5.38142 13.5603 116 106 104 0.998787 5 4375 2 9019 6 3248
717 6.31995 5.97023 12.914 43 33 44 0.633739 7 3758 4 2106
2083 1.81199 5.07798 13.9888 147 128 114 0.66786 4 8237 5 4341 1 4383 6 3408
3922 6.47488 3.7522 15.5283 100 81 86 1.22 4 2937 7 2157 2 9956 1 1712 3 2913
718 7.15388 5.95694 12.8381 60 48 56 1.76913 7 3765 4 3866 5 2416 1 2013 3 3222
1884 3.48832 6.81189 11.8183 123 109 98 1.92747 4 5410 5 2853 2 8245
1069 5.4629 3.91948 15.3838 89 68 75 1.71104 7 7750 4 7641 5 8223 1 3590 3 5015 6 3192
719 -1.27247 6.03717 12.8803 100 107 125 0.0929943 4 2130 1 1716
1958 0.541924 3.13046 16.41 143 123 112 0.0925079 7 2722 5 3683 6 2953
721 -0.0063684 6.05868 12.7851 78 83 103 1.70727 4 2136 2 4559 5 1475
2103 3.02343 5.90645 12.8921 53 44 49 1.2424 4 4349 5 4500 2 7981
1443 8.19216 3.44837 15.9195 171 158 154 1.65419 4 402 7 430 5 682 2 995 3 410
722 5.54755 6.0379 12.7602 44 34 43 0.71511 7 3787 4 8616 5 5982
723 2.98596 3.12201 16.4119 80 60 69 1.57615 7 3807 4 2870 5 3552 2 3706 1 2444 6 1243
725 5.73859 3.88046 15.404 139 119 120 1.35484 7 3812 4 2948 2 9846 1 1692 3 3017 6 963
726 4.09734 4.85448 14.2519 140 122 125 0.636596 7 3817 4 1921 5 2380 2 3972
2100 0.702116 5.2203 13.8949 96 81 75 1.22166 7 6239 5 4482
3495 3.93831 2.49036 17.2271 78 51 58 1.73229 4 3432 2 6643 1 2406
1956 0.262267 3.23254 16.3404 104 89 86 0.434317 4 7339 5 3676
1077 -5.96979 2.18212 17.141 29 2 21 1.11149 7 8455 4 3391
727 0.916554 5.75998 13.1385 108 105 114 1.14592 7 3826 4 2098 5 2774 2 8173 1 1772 6 480
1966 3.40052 3.92926 15.3632 161 134 126 0.974014 7 7198 5 3718
729 -2.14132 4.18578 15.1223 94 79 77 1.94104 7 3853 4 4805 2 5182 6 3017
1451 1.57115 6.7805 11.8318 132 114 100 1.09936 4 1231 5 737 2 2570 1 1427
730 5.0865 4.26765 14.7869 59 43 56 0.701068 7 3862 4 4788
2104 -1.24366 4.74501 14.5071 47 38 41 0.917403 4 8086 5 4515 2 8044
731 0.257347 4.75831 14.4175 100 84 87 1.55428 7 3869 4 4638 2 8980
3129 7.81814 3.80321 15.444 101 81 91 1.42435 4 1516 7 2134 2 3545 3 1728
4008 5.78155 1.65457 18.0904 72 52 60 0.69025 4 2721 2 5743 1 1143 6 1300
733 3.81955 5.34502 13.6284 132 116 116 1.6053 7 3882 4 4509 5 4244 2 9169 1 1841
2099 -1.77349 4.49393 14.8348 73 57 57 0.937882 4 4981 5 4474 1 6297
4002 2.38006 6.07125 11.1752 94 66 62 1.96983 4 2200 2 4474
734 -3.38134 0.406955 17.6295 247 91 9 0.125488 7 4606 4 2652
1964 1.84725 1.72176 18.1461 102 92 83 1.06006 4 2724 7 2513 5 3712 2 3515 1 1226 6 2330
1085 1.17248 2.62714 17.0427 103 84 90 1.54899 7 8653 4 7082 5 8179 2 9761 1 2967 6 2890
735 -6.09658 1.28783 16.5128 223 70 19 0.16935 7 4668 4 2694
1910 0.584902 6.71927 12.0265 130 113 105 0.627451 5 3064 2 8750
737 0.150904 3.27446 16.2198 75 58 66 1.40181 7 4786 4 7360 5 3836
739 2.17275 3.22713 16.2946 127 105 107 1.62355 7 4933 1 3969 4 3591 6 3118
741 -3.10074 3.28269 16.2695 87 75 77 2.58144 7 4951 4 3614 1 5810 6 4415
742 4.64172 5.66044 13.2308 93 81 85 0.706762 7 4992 4 4415 5 4266
3447 1.17541 1.66921 18.221 74 48 47 0.886479 4 3330 7 5621 2 6015 6 2746
1908 -0.088215 6.3785 12.3274 57 48 53 1.47188 4 4060 5 3018 1 1836
1918 0.108907 5.81997 13.0893 110 95 88 0.558338 4 4355 5 3156 2 4488
745 1.7809 3.18229 16.3936 86 69 75 1.24084 4 3574 2 3793 1 2411 6 3077
746 -2.46332 3.24384 16.3403 58 40 40 2.13668 7 5504 4 5031 6 4452
747 -5.98332 1.34138 16.5059 132 108 95 0.408308 7 5565 4 6766
3960 12.1464 5.13048 13.6817 196 178 176 1.42055 7 3456 2 10069 3 3941
749 -1.44155 1.45284 16.5429 29 0 23 0.0502655 7 5608 4 6820
3954 4.33755 2.75131 16.8144 100 70 72 2.11351 4 2823 5 7379 7 3702 2 10050 1 2451
750 -5.52487 1.55018 16.469 192 53 29 1.68853 7 5613 4 3332
751 -5.79396 1.62268 16.4231 64 52 55 0.339484 7 5632 4 3344
1862 1.58351 5.79354 13.101 98 82 82 0.401953 4 4371 5 2746 2 8212
753 2.14385 2.5175 17.2174 91 73 87 1.00949 7 5759 4 3437
754 1.20435 2.54846 17.1597 170 156 143 1.05517 7 5766 4 3439 1 4053 6 4249
755 1.66074 2.56509 17.1171 89 73 83 1.68517 7 5770 4 3445 5 3964 1 2324
757 0.980821 2.65405 16.9843 56 41 48 1.53549 7 5793 4 7090 5 8200 2 9738 6 2884
758 1.46258 2.68672 17.0857 72 56 67 2.89815 7 5799 5 8180 4 3466
3399 6.7115 1.97056 17.7418 92 70 82 1.72201 5 7044 2 5748 3 3344
1860 0.989863 5.5714 13.315 62 53 57 1.5912 4 4419 5 2738 2 4375
759 1.83068 2.69632 16.9583 67 55 65 1.58225 7 5802 4 4949 1 2353
1870 -0.991583 5.22268 13.8738 118 104 96 0.334818 4 8332 5 2771
761 3.46545 3.14191 16.387 158 135 141 1.37231 7 5812 4 7302 2 9847 6 4148
1355 1.25819 6.35525 12.3968 55 52 59 1.71072 4 466 5 266 2 759 1 295
762 1.13835 3.17368 16.4041 129 109 111 0.832004 7 5816 4 3570
763 0.228113 2.80079 16.8406 128 110 101 1.38426 7 5833 4 7142 5 8327 2 9622 1 5938 6 2861
3912 7.28539 4.13689 15.0903 205 174 169 1.08777 4 4846 2 9918 1 1796 7 3060 3 2884
765 2.61616 2.86851 16.7294 73 53 62 1.27608 7 5855 4 7174 5 7786 1 6197 6 3059
3906 10.5289 5.19574 13.6997 195 173 162 0.301842 7 1816 2 9907 3 4513
766 -3.20425 2.95581 16.6682 75 60 57 0.234385 7 5861 4 7219
1868 1.30354 5.82012 13.0454 53 44 49 0.229765 4 4359 5 2766 2 8145
767 -0.186354 2.91277 16.6426 63 47 48 1.81858 7 5866 4 3501 6 2858
768 3.84848 3.12841 16.3765 62 46 57 1.52569 7 5869 4 3559 5 7519 2 9888 1 3896 6 4118
771 0.530016 2.92915 16.6546 75 53 56 1.83909 7 5878 4 7202 5 8338 2 9610 1 4056
1719 4.39973 2.50012 17.1755 133 115 115 0.94592 4 1621 5 2068
772 -0.478134 2.9624 16.5689 101 81 74 1.29571 7 5891 4 7227
1713 4.62129 2.27874 17.3761 72 65 76 1.68551 4 2769 2 5873 1 1133 6 1279
774 2.11344 2.98684 16.6127 75 58 68 1.15082 7 5906 4 7233 1 4024 6 3046
775 0.0680351 3.01856 16.5751 72 50 53 1.14475 7 5912 4 3526 2 9535 1 2320 6 2899
776 0.779832 3.02858 16.5524 166 146 139 1.6746 7 5923 4 3527 5 3994 2 9601 1 3022 6 2949
3771 10.357 4.89659 14.1131 122 103 105 2.28336 5 3962 2 8888 3 1795
778 0.19009 3.04459 16.5406 90 67 73 1.62335 7 5928 4 7262
1210 0.0384542 4.68591 14.5011 140 124 123 1.12489 7 10420 4 8051 5 6072
779 2.09348 3.03285 16.531 171 148 150 0.914275 7 5931 4 7258 5 8230 1 6196 6 3058
780 2.73184 3.02322 16.5479 151 132 128 1.41456 7 5932 4 3528 5 3535 2 9801 1 2421 6 1439
1721 9.78477 3.95421 15.222 171 160 155 1.38141 7 1135 5 2074 2 3345 3 1841
782 2.17954 3.10582 16.7647 76 59 75 1.09435 7 5940 4 7268
783 0.999805 3.06385 16.5058 187 169 157 1.38694 7 5943 4 3541 5 6379 2 9620 1 3204 6 2972
784 1.88621 3.07528 16.4813 144 124 125 0.944801 7 5949 4 7271 5 8258 1 4126 6 3049
786 2.54051 3.09252 16.5164 99 83 96 0.530577 7 5956 4 3550 6 1440
3725 -0.416364 5.23888 13.8322 62 41 48 0.754913 4 8341 5 2748 2 8138
787 3.60224 3.06162 16.4644 81 65 76 0.626546 7 5957 4 3544 5 3801
1671 1.55808 4.1221 15.1522 197 176 157 1.51763 4 2996 5 1829
788 0.536404 5.66274 13.1803 111 101 108 1.05839 4 8532 6 3538
1665 1.09711 4.3221 14.9188 82 61 59 2.01445 7 2058 5 1786 2 4076 1 2536 6 594
790 3.13077 5.72344 13.1658 130 112 107 1.05883 7 5986 4 4394 5 4423
791 3.18356 5.71932 13.1698 137 117 108 0.955329 7 5988 4 4397 5 2614 2 8992
3206 -1.0453 3.29984 16.2429 98 73 66 0.890151 4 3616 5 1972 2 3996
792 3.81015 5.73556 13.1844 82 65 73 1.26138 7 5994 4 8522 1 7901
3723 3.96776 6.61652 12.0499 63 39 37 1.42022 4 3943 5 2773 2 8095 1 3067
794 2.65496 5.7183 12.9919 86 74 78 2.06485 7 6025 4 4381 2 8475
1162 5.50857 4.01539 15.2145 76 56 67 0.950384 7 9798 4 7695 6 3437
795 4.40288 5.76886 13.1252 97 78 82 0.0881087 7 6027 4 4389
796 6.87786 5.77331 13.1544 87 74 81 1.03791 7 6029 4 8506 5 8836 3 8718
1673 6.67167 5.47145 13.466 111 100 106 1.37741 4 2029 5 1837 3 1687
798 3.46483 5.79401 13.0831 92 78 78 1.10293 7 6035 4 4380 5 2615 1 3256
802 3.68674 5.81121 13.0669 61 46 53 1.28868 7 6053 4 8552 5 6143
3532 7.46591 -1.25751 18.604 24 43 60 0.860219 4 6325 2 6792 3 8086
3677 7.3044 2.89037 16.551 96 76 85 0.717166 4 3499 2 7389 7 2702 1 973
1106 -1.31214 3.0624 16.457 73 53 52 1.25934 7 8945 4 7274
803 3.88268 5.8624 13.1532 109 97 101 1.02653 7 6057 4 8555
2509 0.721445 3.2485 16.3066 93 73 72 0.488417 4 5032 5 8456 6 4809
804 7.22407 4.68034 14.4174 70 55 68 0.705103 7 6064 4 8005
2502 1.56219 3.41631 16.0476 186 166 157 1.35251 7 9240 5 8424 2 9557 1 3968
1617 2.08831 6.88677 11.7427 63 56 63 1.45099 4 3782 5 1532 2 8530
1472 3.7245 6.01939 12.7943 41 40 56 1.20449 7 1261 5 821 2 2826 1 884
806 3.6418 5.83045 13.0285 108 93 90 1.08039 7 6069 4 8563 5 6160 1 3286
807 3.46863 5.85282 12.9855 121 104 99 1.22052 7 6088 4 4363 5 2639
2497 4.69601 4.19643 15.0257 105 89 90 1.20122 4 7775 5 8401 1 3575 3 1446
3158 9.80589 4.92679 14.0227 83 63 72 1.69405 7 1892 2 3637 3 2724
808 3.33524 5.87238 12.9917 97 83 83 1.22002 7 6091 4 4358 2 8944 5 2653
2506 2.24441 3.65954 15.7306 212 190 178 0.818991 4 7535 5 8446 2 9551
3675 5.77612 2.38162 17.1831 77 58 63 1.84159 7 2580 2 7382 1 2461 3 2792 6 1499
810 7.11141 5.04516 13.9064 108 82 81 0.313442 4 8192 3 5306
1114 3.98111 3.13431 16.3873 128 109 113 2.40694 7 9039 4 7296 1 3891 6 1529
811 1.79282 5.13311 13.907 127 108 110 0.981589 7 6112 4 8272 5 4359 1 1715
812 4.10243 5.94245 13.0485 38 31 40 0.556427 7 6114 4 8580 2 9028
1625 2.40678 7.0982 11.4478 88 80 78 1.0926 4 2268 5 1563 2 8599
1480 3.19813 6.38874 12.3692 108 94 83 2.14362 4 1284 5 852 2 2743
814 0.376434 5.94637 12.9211 143 132 140 1.88373 7 6124 4 8621 5 4763
815 6.64494 5.89928 12.7911 45 35 44 2.24802 7 6133 5 8915
818 0.180712 5.97178 12.8719 86 80 92 2.07555 7 6142 4 4321 5 2886 2 8378 1 3448 6 886
3548 11.0347 0.161298 17.245 102 130 152 1.54951 7 4612 2 6831 3 6029
3757 3.18985 7.34847 10.8478 118 98 91 2.26015 4 5640 5 3051 2 8641
1186 4.30624 4.3174 14.9118 81 64 72 0.201764 7 10062 4 7837
819 4.76798 5.95668 12.8452 94 83 89 0.192595 7 6143 4 4346
2525 3.69246 4.32943 14.9114 94 78 88 1.76691 7 6978 5 8562 1 4284
820 6.87927 6.08668 13.0006 101 82 84 1.01677 7 6164 4 4350
2518 4.81268 4.52259 14.6615 201 181 174 0.744502 7 6876 5 8501 1 3494
1697 2.80937 2.12575 17.6149 76 65 73 0.863909 4 1648 5 1975 7 2394 1 618
1488 -0.184053 5.56651 13.3735 51 48 55 1.04093 4 1338 5 871 1 1635 6 760
822 6.0025 6.02734 12.8307 84 71 78 1.40955 7 6170 4 4345 1 1990
823 4.45692 3.05269 16.3919 165 144 143 1.90851 7 6186 4 3545 5 7448 2 9966 1 3873 6 4090
2513 4.36049 4.31418 14.8948 102 83 87 0.554593 4 7838 5 8475 6 1882 1 3572
824 6.54369 5.01307 14.032 136 112 108 1.27147 7 6196 4 8169 3 5083
2522 -0.541483 3.08952 16.4924 67 49 50 1.68767 4 3549 5 8518 2 9439 1 2956 6 2872
826 4.14013 5.99517 12.6305 90 78 80 1.11982 7 6202 4 4326
1194 5.44493 4.4648 14.7636 206 183 175 1.2833 7 10217 4 7904 1 4546 3 8629
827 3.75261 6.06469 12.745 82 72 71 1.75969 7 6212 4 4320 5 2676 2 5180 1 1925
1711 2.22429 1.45702 18.4743 63 50 57 1.22195 7 2022 5 2037 2 5859 6 2319
828 5.6487 5.18708 13.8263 89 68 77 0.0562164 7 6246 4 8270
1496 3.16431 6.68511 11.9747 41 41 53 1.74385 4 2221 5 894 2 8301 1 1396
830 2.6134 5.21886 13.7829 104 94 105 1.44548 7 6262 4 4528 5 2519 2 9090 6 1988
831 3.80386 5.22636 13.7602 71 59 71 0.583665 7 6267 4 8307 5 8959 1 3153
832 1.16943 5.24606 13.7612 120 110 111 0.338149 7 6271 4 8333
834 -2.84444 5.25232 13.6004 42 40 45 0.847766 7 6278 2 4632
3837 5.29268 4.70382 14.5479 214 184 172 0.229154 5 2311 3 3248
1266 4.21791 5.59577 13.6776 88 81 89 0.778475 7 11249 4 8420
835 2.18745 5.25049 13.7344 107 92 97 0.747399 7 6285 4 4518 6 897
1783 6.88841 4.91054 14.1209 85 72 79 1.4761 7 3356 5 2276 2 3805 1 1491
836 5.27599 5.30397 13.6331 63 49 62 0.519281 7 6297 4 5092 2 9347
1777 3.39205 3.84432 15.5181 78 57 63 0.656297 7 2140 5 2258
838 1.81832 5.29365 13.6747 73 60 67 1.73579 7 6313 4 8359 2 8976 6 3534
839 7.84333 5.26597 13.7215 72 60 72 1.14321 7 6316 4 8288
3318 10.3043 -1.5486 18.6643 38 50 64 1.03047 7 4456 2 5446 4 3087 3 3845
840 5.90339 5.27985 13.6928 139 120 116 1.67938 7 6327 4 8311 5 4094 2 9420 1 3294 3 3270
3835 1.99575 3.64499 15.7636 200 167 158 1.68886 5 3768 7 7348 2 9537 1 3907 6 4132
842 5.40929 5.28772 13.6898 120 104 107 0.338429 7 6331 4 8316
1274 7.04061 5.53606 13.3573 57 45 55 1.19383 7 11312 4 8417
1791 -0.0246522 3.30383 16.2646 84 68 69 1.65794 4 2454 5 2318 1 2356
844 3.26859 5.1517 13.8741 131 115 118 0.484811 7 6348 4 4547 2 9173
1785 0.399557 3.33134 16.1834 136 116 109 0.97061 4 2893 5 2300 2 9451 6 1105
846 2.97849 5.34386 13.6258 117 105 107 0.809369 7 6364 4 4502 5 2528 2 9089 1 2090 6 849
847 -0.946142 5.38225 13.6526 87 85 98 1.39255 7 6367 4 4473 2 8290 1 3678 6 1745
1059 5.29744 3.59615 15.7479 100 79 88 0.715266 7 7647 4 7503
850 -2.15139 5.42406 13.5465 53 52 68 1.99732 7 6404 2 4597 6 1639
3789 1.99545 5.02543 13.9795 90 60 59 1.9801 5 2513 2 9077 1 1711
1218 3.03864 4.71224 14.4336 136 114 117 0.689541 4 8049 6 3406
851 0.464888 5.16193 13.962 127 109 106 1.41144 7 6405 4 4542
1729 7.95788 3.61526 15.6879 186 169 157 1.8187 4 1533 7 2177 5 2090 2 3321 3 2018
854 -2.31017 5.42155 13.4484 53 52 68 0.119098 7 6428 2 8601
3111 12.8723 3.15881 16.1096 136 120 121 0.925585 5 3518 7 1404 2 3470 3 2300
1572 0.969417 1.87011 17.9838 103 86 79 1.70797 4 499 5 1361 2 1027 7 750 6 493
855 0.338473 5.49986 13.5348 124 112 116 1.85942 7 6441 4 8445 1 4375
3270 3.23354 7.16469 11.3625 49 33 36 2.07754 5 1645 2 4560 1 1366 4 2273
1067 4.78072 4.96077 14.2331 179 154 147 1.70527 7 7735 5 3133
858 6.93036 5.48901 13.487 117 101 104 1.64665 7 6475 4 8386 1 3492
1226 5.52703 4.79123 14.2761 71 53 58 0.24132 7 10583 4 8074
859 6.50684 5.47521 13.4255 56 44 54 1.78947 7 6482 4 8397 5 4102 1 4985 3 5190
3624 10.289 2.74777 16.7902 146 130 133 1.27474 7 2670 2 7162 3 4124
1737 1.1822 1.99576 17.8233 63 51 58 1.73244 4 2740 7 2405 5 2104 2 3268 1 1221 6 2336
862 6.95308 5.49116 13.4011 59 43 53 1.44462 7 6500 4 4483 5 8686 1 3742 3 8608
863 5.91086 5.51123 13.4004 110 99 95 1.13879 7 6508 4 8416 5 4152 1 3368
864 5.02059 5.53517 13.4055 80 70 79 1.55477 7 6514 4 8430 5 4214 1 3302
866 3.57476 5.53505 13.3684 120 110 109 0.995361 7 6523 4 4451 5 4329
1170 3.22433 4.0779 15.243 109 87 90 1.17253 7 9830 4 7721 1 6763
867 4.24956 5.56488 13.367 41 33 46 0.617269 7 6533 4 8450
1687 1.24212 5.94861 12.9238 53 43 52 1.35031 4 4337 5 1911 2 8201
868 3.8769 5.56597 13.355 76 63 72 0.396267 7 6542 4 8455 5 4311
1681 2.81605 3.96705 15.352 204 176 164 0.827439 7 1129 5 1871 2 1569 1 712
870 2.48391 5.59744 13.315 106 94 96 1.17913 7 6568 4 4422 5 2643 2 8939
871 -2.18436 5.61317 13.2201 79 80 98 1.0774 4 8537 5 2975
3222 1.42085 4.87461 14.2661 107 92 93 2.14203 5 2516 7 3325 6 826
872 4.75164 5.59954 13.3113 101 88 95 1.64997 7 6573 4 8461 2 9184
3739 0.133265 6.01999 12.7858 87 68 70 1.21185 5 2904 7 6172 2 8417 1 3435 6 2029
874 1.10951 4.97272 13.951 83 67 70 0.041748 7 6582 4 8216
1178 5.73437 4.11838 15.0823 62 46 56 1.61434 7 9915 4 7741 1 4450
875 5.03789 4.97709 14.0735 68 52 65 0.746472 7 6587 4 8166 5 4070 1 3354
1695 0.19865 5.81647 13.0706 110 95 92 0.182463 4 2107 5 1957
876 7.54195 4.95582 14.1279 140 119 114 1.4857 7 6590 4 4601 3 6043
1689 2.27678 6.74298 11.886 106 91 84 1.40035 4 4002 5 1932 2 8405
878 5.50993 4.95789 14.0908 171 150 149 1.40534 7 6593 4 8155 5 8624 1 4745 3 3266
879 2.54235 4.9613 14.1157 66 52 67 0.930773 7 6603 4 8174 5 4236 1 4422
880 1.97837 4.96219 14.1197 88 67 74 1.42281 7 6604 5 4282 6 3361
882 6.22855 4.92248 14.1501 70 55 62 1.89423 7 6608 4 8127 5 8509 3 8587
3821 4.65682 4.84014 13.8593 0 0 0 0.806384 4 8146 7 3874
1250 -2.21965 5.16245 13.8817 108 101 109 1.60335 7 10891 4 8326
1767 0.726841 2.58008 17.0881 111 96 93 1.56899 4 2799 5 2208 2 3746
884 4.10965 4.89049 14.192 76 60 70 0.734337 7 6623 4 8128 1 3445
1761 6.54589 3.98244 15.2727 178 158 151 1.03609 4 1504 5 2185 3 1544
886 5.73951 4.85249 14.2483 152 132 133 2.11204 7 6640 4 8094 5 8549 3 5176
887 4.15229 4.8525 14.2295 135 119 124 1.08301 7 6641 4 4608 1 1773 6 880
3302 0.958918 4.58993 14.5823 168 140 126 0.96433 5 2479 7 3212 2 5167
888 0.666908 4.87781 14.2255 160 140 135 1.13805 7 6642 4 4594
890 -0.23124 4.87974 14.2305 131 116 113 0.625579 7 6650 4 8156
1258 5.32779 5.37159 13.5946 89 77 87 1.33657 7 11139 4 8365 2 9328
891 -2.47497 4.86 14.1366 122 113 106 0.496678 7 6651 2 8314 1 10747
892 0.568559 4.86352 14.287 100 82 84 0.617874 7 6664 4 8132 5 4381
1769 5.96337 4.0571 15.2328 92 74 83 1.49598 5 2216 2 9806 7 2102
894 6.37871 4.80584 14.2816 136 114 110 0.940429 7 6666 4 8073 1 3184
895 7.1314 4.79296 14.2756 124 98 97 0.994497 4 4653 5 8372 3 4945
1558 11.7468 3.26673 16.0443 164 156 156 1.45131 7 1083 5 1313 2 3439 3 1927
897 2.07611 4.87129 14.4657 148 128 127 1.55763 7 6682 4 8104
1043 2.20446 3.44872 16.0344 123 107 108 0.703245 7 7445 4 7427 1 3931 6 1495
898 7.18749 4.76 14.3108 155 131 121 1.6311 7 6687 4 8048 5 8351 3 4932
899 4.08319 4.78212 14.3113 125 114 122 1.2404 7 6688 4 8081 1 3479 6 1986
901 1.24346 4.79794 14.3633 151 127 127 1.33009 7 6696 4 8093
902 -0.328115 4.80944 14.3556 115 99 96 1.00946 7 6697 4 4607 5 2642 2 7485 1 3800 6 1612
3095 11.7172 3.61326 15.6033 78 56 69 1.19117 5 1977 2 3418 3 1913
903 4.55205 4.75819 14.3378 141 121 122 0.640722 7 6703 4 8068 1 3444
1566 8.24712 3.32046 16.006 73 61 73 2.21999 4 1561 5 1338 7 794 2 3354 3 1234
905 7.24817 4.74172 14.3848 118 97 94 1.25018 7 6712 4 8033
1051 -0.947676 3.36669 15.8368 58 46 48 0.441251 7 7606 4 3650
906 7.41602 4.72514 14.3926 175 152 146 0.827334 7 6717 4 8024 1 1883 3 4885
907 6.83687 4.72603 14.3826 177 150 142 0.262494 7 6718 4 8032
909 5.33791 4.72307 14.385 115 89 92 0.285849 7 6731 4 8042
3602 6.73645 1.40666 18.3419 58 42 55 1.71344 7 2488 2 7093 1 2383 3 4288
910 4.66642 4.74363 14.4057 72 51 58 0.0924012 7 6732 4 8052
911 4.42422 4.72587 14.3654 99 82 90 1.59608 7 6734 4 4665 5 4058 2 9437 1 1761 6 816
1638 2.75418 6.09227 12.7045 50 45 52 0.790495 4 1294 5 1647 2 2763
913 5.8159 4.70032 14.4085 85 60 66 0.547426 7 6739 4 8030 3 5125
1123 1.9255 3.24018 16.2061 124 104 109 1.56813 7 9113 4 7343 5 8313
914 4.52872 4.70259 14.429 154 136 134 1.38295 7 6748 4 8037 1 3472
915 1.24212 4.73592 14.439 92 73 79 0.897312 7 6750 4 8069 6 3767
917 4.33539 4.68049 14.4559 112 91 90 0.842032 7 6761 4 4679 5 4051 1 1756
918 0.469225 4.70345 14.4711 147 128 126 1.17954 7 6772 4 4658 2 9020 5 2546 1 3761
3175 10.8234 5.72888 13.0415 101 83 95 1.49267 7 1697 2 3727 3 2734
1636 -1.38041 4.83906 14.3882 108 94 85 2.03952 4 1421 5 1636 2 1750
919 6.61337 4.6405 14.4672 80 64 67 1.60667 7 6774 4 7991 5 8370 1 3157 3 4995
1646 4.05119 6.60619 12.0108 69 63 67 2.07189 4 2202 5 1674 2 8086
921 2.63964 4.66456 14.4862 167 146 141 0.986179 7 6783 4 8026
1131 2.24172 3.42061 16.119 169 150 146 0.500236 7 9241 4 7412
922 0.801344 4.66666 14.4892 163 145 144 1.65529 7 6789 4 4674 5 4290 2 9071 1 3736 6 3865
923 0.360625 4.67774 14.5043 81 66 71 1.25638 7 6790 4 4984 5 4340 2 9017 6 1638
3688 8.60905 3.48238 15.9167 70 51 57 0.992515 4 3655 7 2847 2 7436
925 1.72359 4.64856 14.5019 112 90 92 1.86135 7 6794 4 4680 5 8958 2 9161 6 1756 5 2449
3682 9.20088 3.60938 15.6706 167 144 136 1.1204 5 5851 2 7417 3 2578
926 2.06669 4.62203 14.5 135 114 112 1.56417 7 6806 4 4687 5 3944 1 4193
1644 1.33255 1.44445 18.4741 109 91 81 1.45078 5 1670 1 489 7 742 6 423
927 6.75305 4.59267 14.5843 107 86 86 2.13925 7 6809 4 4717 1 1846 3 8313
1075 -1.56702 1.42394 16.5409 255 142 84 0.212213 7 8270 4 4944
930 6.6378 4.58644 14.5599 114 92 96 1.39153 7 6814 4 7972 5 8341 1 3136 3 4980
3805 2.86636 4.825 14.2927 215 180 176 0.797953 5 4188 2 9229 6 1894
1234 7.58257 4.87263 14.1642 161 141 134 1.75364 7 10678 4 4623 5 3763 1 3260 3 4893
931 3.15544 4.6134 14.5518 176 160 163 1.6361 7 6817 4 7993 5 8768 1 3582 6 1864
934 6.68301 4.55239 14.5768 176 153 147 0.96486 7 6838 4 7956 1 3134 3 4962
3127 10.3222 4.47898 14.5663 72 57 71 0.383092 7 2008 2 3531 3 2589
1588 1.90129 6.3588 12.3413 42 36 50 0.966183 4 5244 5 1434 1 3293
935 5.10026 4.56497 14.5845 204 181 175 1.05894 7 6845 4 7971 5 8495 1 3464 3 5210
3286 12.8714 3.41926 15.7959 79 62 72 0.648336 5 7020 7 2191 2 4780 3 6349
1083 2.22285 2.54353 17.1326 51 35 48 1.25596 7 8619 4 7059 1 10081 6 4702
938 -0.401966 4.62882 14.6355 117 101 101 1.05367 7 6849 4 8014 5 4391 1 6515
1242 2.29095 5.0444 14.0232 154 134 133 0.66432 7 10798 4 8219 5 5929
939 0.793554 4.60108 14.5947 161 143 141 1.46611 7 6853 4 4695 2 9092 1 3764
3640 13.3381 4.02314 14.9009 113 100 109 0.143024 7 3069 2 7235 3 4069
942 3.66203 4.53662 14.6084 130 107 113 0.101943 7 6868 4 7966 1 4382
1596 0.468763 6.08213 12.7636 63 54 55 1.47088 4 2140 5 1460 2 8380
943 0.805445 4.56855 14.6372 87 70 76 1.1788 7 6869 4 7984 5 5892 1 6665 6 3931
1542 1.43253 3.46973 16.0525 137 116 107 0.948311 4 538 2 1076 1 351 6 242
945 3.94005 4.51684 14.6289 204 183 182 1.09885 7 6877 4 7949 5 8620 1 3554 6 1899
1027 1.35545 3.6986 15.7026 176 151 146 2.34576 7 7335 4 7547 5 8567 1 3934 6 2898
946 6.46196 4.47304 14.6084 109 87 90 0.410308 7 6879 4 7916 3 8344
947 -1.13869 4.5614 14.656 81 71 79 2.32928 7 6884 4 7990 5 6204
949 3.12023 4.5133 14.6805 151 135 141 0.991602 7 6888 4 4727 5 4091 2 9375 6 1838
950 3.48639 4.49416 14.641 174 148 152 0.104951 7 6891 4 7939
3079 6.33809 2.61348 16.8979 78 54 67 0.752597 4 1617 7 2341 2 3365 1 912
1540 7.34377 4.51511 14.6103 161 143 133 1.63883 4 580 7 609 5 1108 2 1047
951 6.48371 4.44785 14.6694 170 150 145 1.80151 7 6896 4 7900 1 3238 3 4976
1550 7.09575 6.01346 12.7785 122 117 121 1.73095 5 1173 2 2992 1 466 3 964 7 1259
953 0.716968 4.4938 14.7286 101 86 89 2.18082 7 6903 4 4731 5 4247 6 3979
1035 2.6939 3.55615 15.8725 89 68 73 1.31102 7 7382 4 3681 5 6381 2 9636 6 1539
954 3.56172 5.56902 13.1499 65 48 54 0.260752 7 6908 4 8479
955 6.50798 4.42002 14.7306 111 90 91 0.931123 7 6911 4 7881 3 4961
3592 7.11524 1.2528 18.5577 75 58 67 1.38892 5 6901 7 5558 2 7053 3 4172
957 3.59805 4.4058 14.8114 73 57 70 0.45256 7 6943 4 7885
3586 6.4934 3.21839 16.2326 137 108 113 1.08051 4 3593 7 2766 2 7032 1 2619 3 2833
958 2.62664 4.39233 14.8328 90 72 84 1.64632 7 6953 4 4977 2 9365 1 3671 6 3741
1548 1.08917 4.25732 15.0443 195 172 158 1.64814 7 1161 5 1168 1 697 6 586
959 1.8019 4.3903 14.8392 81 64 80 1.79354 7 6954 4 7884 5 4150 6 3855
1622 3.72785 6.26025 12.4024 53 46 53 1.44226 4 2162 5 1552 2 4315
961 -1.82022 4.41539 14.9215 103 92 89 0.650931 7 6967 4 7913 2 8473 1 4109
2343 3.37626 1.97268 17.8088 99 79 80 2.16671 7 2535 5 7234 2 8069 1 2319 6 2895
1107 3.97296 3.01101 16.5383 81 59 72 1.29954 7 8948 4 7250
962 6.75872 4.31235 14.9056 94 71 79 0.790033 7 6969 4 7820 1 3409
963 6.24652 4.31208 14.8616 97 76 85 0.776257 7 6970 4 7830 3 4983
965 6.12715 4.27591 14.9407 71 55 66 1.57924 7 6990 4 7813 5 3638 1 1765 3 4989
966 3.90908 4.2947 14.9399 146 123 129 1.30787 7 6993 4 4789 5 3850 1 3610 6 1843
2340 8.58827 3.29722 16.0295 88 75 84 0.744811 7 7470 5 7220 3 4408
3159 5.93793 3.74874 15.5529 85 62 65 1.6151 4 1519 5 2174 7 2160 2 3646 1 1639 3 1568 6 670
1317 1.42754 5.95651 12.8052 60 51 56 2.13387 4 91 5 62 2 112
967 3.67237 4.2973 14.945 163 143 145 1.27583 7 6994 4 7833 5 8548 1 3626 6 3632
1630 -1.06879 4.69679 14.5581 54 47 53 1.6584 4 1897 5 1598 2 4325
969 3.37528 4.28026 14.993 76 64 76 2.54066 7 7006 4 7823 5 8581
1115 3.72388 3.13925 16.3768 67 51 62 1.22744 7 9044 4 7299 5 7724 1 3903
970 -2.30522 4.33741 14.9358 116 97 91 1.19893 7 7007 4 4216 1 2401 6 2470
2344 3.99156 2.15131 17.5662 151 162 171 1.16289 4 3381 5 7237 7 8476 6 2432 1 3190
971 5.19522 4.25235 14.9683 65 50 60 0.771131 7 7012 4 7804 5 8368 3 3171
3369 14.7256 3.0669 16.0313 120 105 110 0.367669 7 2231 2 5642
3672 -0.316958 0.961633 18.6642 51 31 32 1.5232 7 8043 2 7372
973 0.435831 4.29745 14.9595 169 149 142 2.45995 7 7016 4 3023 5 3139 2 4113 6 1555
2339 9.01638 3.35798 15.8923 118 107 111 0.937028 5 7209 3 4350
3666 3.72137 1.62198 18.2698 49 37 47 1.88718 4 3323 7 5620 1 2300
974 -2.06493 4.33381 15.0265 66 51 58 1.49436 7 7018 4 2536 5 2647 2 8468 1 4010
1628 5.47222 3.76885 15.5272 165 149 149 1.10894 7 2916 5 1571 2 3677 1 1662 3 3034
1325 0.661796 6.09163 12.7116 91 79 81 1.49141 4 196 5 109 2 300
975 4.53828 4.22804 15.0109 163 134 128 1.29051 7 7028 4 4807 5 8429 2 9616 1 3579 3 5238 6 1874
1702 10.1571 2.91852 16.4628 74 67 77 1.16848 7 2277 5 2003 2 7207 3 1897
977 -2.05943 4.26717 15.014 110 98 97 1.17966 7 7040 4 3025 2 4303 1 2404
2359 1.46144 1.65911 18.2122 56 49 53 2.15118 7 5622 5 7281 1 4140 6 4364
1187 5.84011 4.34621 14.8376 153 132 132 1.02397 7 10105 4 7848 1 3466 3 5047 6 815
978 -2.39651 4.27741 15.0401 108 93 90 1.29017 7 7042 4 4775 5 2656 6 3022
979 1.40294 4.2221 15.0929 180 160 153 1.93788 7 7049 4 7791 6 5437
981 1.48576 4.20961 15.0811 170 149 144 2.28763 7 7054 4 4810 5 4123 2 9280 6 3995
982 -0.228832 5.65178 13.2908 90 85 99 2.38141 7 7058 4 8525 2 8298 6 3395
2356 5.86873 2.78469 16.7664 90 82 97 1.77814 4 7143 5 7274 3 2835 7 2663
3239 10.5867 -1.2361 18.4716 128 121 103 0.768007 7 4490 2 4319 3 2024 5 8594
1700 3.09679 0.840365 19.0361 73 57 60 1.04869 4 970 7 986 1 590
1333 4.51175 2.17005 17.5537 82 72 83 2.54968 4 193 7 263 5 171 1 92 6 92
983 -2.21982 4.22837 15.0778 69 53 56 1.78437 7 7063 4 7826 2 9004 1 6165 6 4840
985 2.26114 4.17073 15.1782 170 149 148 0.557792 4 7766 6 3913
1195 6.02297 4.4916 14.7659 179 156 153 1.63632 7 10237 5 8376 1 4611 3 5048
986 3.69887 4.1044 15.089 137 109 105 2.13918 7 7091 4 4844 1 3660
2360 4.69456 2.51539 17.1084 74 63 76 2.04049 7 5774 5 7282 2 7694
987 4.58823 4.08678 15.1875 165 145 144 1.18917 7 7106 4 7724 5 8366 1 4173 3 5189 6 3599
3385 4.09234 0.71912 19.2645 55 32 37 1.54258 4 1583 7 4623 2 5700 1 1238 6 2304
3752 -0.13772 6.71331 11.9834 63 46 52 0.931287 4 2235 1 1864
989 2.40828 4.0972 15.2269 123 97 106 1.8061 7 7117 4 7733 5 8619 1 6660 6 3926
2355 2.57184 1.91024 17.8905 68 56 60 1.11516 4 2184 7 5654 5 7272 1 2935
3746 0.840753 6.42575 12.2663 65 58 67 0.861636 5 2958 2 8514
990 -3.63504 4.1636 15.1856 81 70 72 0.890054 7 7118 4 4806
1708 0.740326 0.965381 19.0112 48 37 41 1.84943 4 2668 5 2029 1 1249 2 5853 6 2278
1341 -1.44878 4.96717 14.2353 66 57 62 1.60556 4 246 5 208 2 455
991 5.5916 4.38896 14.8063 69 47 59 1.1688 7 7119 4 4762 1 3473 3 2012 6 757
1654 -1.47755 4.38888 14.9884 93 79 68 1.24983 4 1854 5 1696 1 1108
993 1.82591 4.05295 15.2714 161 139 142 1.5369 7 7151 4 7714
1139 1.29678 3.6491 15.7965 96 79 87 1.91785 4 2919 5 5103 2 3068 6 551
994 5.59075 4.00199 15.2796 78 58 69 1.44557 7 7154 4 7677 5 3653 1 1705
995 3.75953 4.01234 15.2787 144 116 113 0.570381 7 7157 4 4869
997 2.29025 4.02756 15.2306 148 125 125 2.04428 7 7159 4 7706 5 8603 6 3976
998 3.48528 4.00582 15.3042 114 92 95 0.40283 7 7168 4 7686
3191 7.63327 5.41973 13.4735 63 46 54 0.224831 5 2320 2 3847 3 1604
1652 -0.832705 5.33733 13.7376 103 88 84 0.345109 4 2027 5 1688 2 2681
999 -1.18179 4.05147 15.3459 64 52 54 1.48485 7 7174 4 4856 5 4267 1 6204
1662 4.68117 5.40135 13.5601 55 47 58 1.38755 4 1366 5 1761 2 2963
1001 1.98168 3.97644 15.3575 168 145 146 1.64355 7 7186 4 4873 5 8618 2 9421 1 3838
1147 4.24674 3.96642 16.0008 58 40 45 0.546712 7 9628 4 7610
1002 4.92244 3.93394 15.3642 95 72 81 1.32891 7 7189 4 4890 5 8276 1 1660 3 3146 6 1825
1003 -1.52836 4.01298 15.3883 157 142 129 2.11845 7 7197 4 4860 5 2507 2 4192
3704 2.76326 5.99859 12.7139 59 43 46 0.280173 4 4324 2 7642
1005 -1.53054 3.94753 15.391 59 47 49 1.38 7 7220 4 7681 2 9048 1 6147
3698 5.81638 2.73592 16.7913 146 121 117 1.78304 4 2817 7 2650 2 7461 3 4709
1006 2.45955 3.92213 15.4684 106 85 93 1.23865 7 7224 4 4897 2 9492 1 3814
1660 1.53444 4.70416 14.3822 76 57 61 2.28126 4 1431 5 1742 2 4127
1007 4.22578 5.64352 13.2642 149 134 130 0.734084 7 7230 4 8482 5 4305
1606 2.71913 6.88514 11.4957 79 70 75 0.359598 5 1490 2 8430
1091 1.24522 2.83914 16.8519 84 67 70 2.14133 7 8771 4 7151 1 10068 6 8212
1010 5.10225 3.82647 15.4854 178 157 156 1.19852 7 7248 4 4917 5 8222 1 3640 3 5051 6 1014
1011 2.86959 3.84703 15.5057 114 102 114 1.50196 7 7249 4 7618 5 3727
1013 4.6493 3.79584 15.532 73 52 61 1.09552 7 7263 4 7593 5 8255 1 6837 6 3244
1014 0.990497 3.82994 15.5298 167 148 144 1.62743 7 7264 4 5021 2 9370 1 3926
3143 11.5209 5.20239 13.6499 198 178 171 1.10248 7 1810 2 3583
1015 -1.51486 3.87043 15.5981 70 56 56 2.47171 7 7268 4 7630 5 5875 2 9082
1614 0.865836 6.51035 12.2228 114 103 97 0.568778 5 1526 2 5202
1017 1.68021 3.82242 15.5846 143 122 121 1.54956 7 7272 4 4924 6 4110
1099 -0.384885 2.97629 16.643 109 90 83 1.56215 7 8873 4 4950 5 6387 1 2953
1018 5.38437 3.76836 15.5502 174 155 151 0.912246 7 7277 4 7575 3 4998 6 1818
1019 3.93775 3.79235 15.5816 79 57 69 0.151709 7 7278 4 5023
3656 14.2203 4.66004 13.9795 140 137 148 2.16732 7 3322 2 7307 3 4061
1021 3.49666 3.74065 15.5257 94 73 80 0.00719717 7 7298 1 3774
3650 13.0552 4.17779 14.7047 194 175 179 0.276388 7 3116 2 7285 3 4239
1022 4.95664 3.76355 15.7606 177 158 154 1.9647 7 7302 4 7559 3 7936
1612 2.65276 6.95061 11.4827 65 56 59 1.13885 5 1515 2 8474 4 5504
1023 -0.414911 5.65492 13.2423 82 81 95 1.88268 7 7314 4 8534
1968 -0.283962 3.28965 16.2251 46 37 41 1.01407 7 2757 5 3728 2 9405 6 2934
1025 -0.947008 3.74574 15.7037 64 49 52 1.46042 7 7327 4 5024 5 2420 6 2993
1026 -0.0606692 3.72077 15.6724 61 49 53 2.0213 7 7330 4 3511 5 4110 2 4016
2493 1.67381 3.33667 16.1475 106 86 87 0.91742 4 3628 5 8379 1 2422
1972 1.03503 1.56604 18.3504 69 57 59 1.78703 4 2708 7 2494 5 3735 1 2225 6 2296
1029 4.13452 3.65088 15.785 188 168 161 1.41053 7 7342 4 3976 1 2567
1031 2.27249 3.63431 15.8299 103 79 82 1.06762 7 7352 4 7516 6 4113
2998 0.436165 4.12891 15.0878 121 92 88 1.78334 5 1787 2 2935
1032 2.87817 3.55233 15.7253 184 163 160 0.0797681 7 7369 4 7491
2491 2.31149 3.48706 15.9647 186 166 157 1.66048 7 9327 5 8369 1 3916 6 4150
1976 8.47717 4.2612 14.8982 85 75 84 0.827023 7 3105 5 3757 2 9983 3 4614
1033 3.91382 3.56399 15.8552 214 193 190 1.34889 7 7376 4 7482 1 3797
1034 3.10257 3.56177 15.9002 80 62 76 0.00236885 7 7380 4 3682
1980 7.05444 3.32838 16.059 163 140 132 1.31744 4 3619 5 3792 2 7272 7 2799 1 1338
1037 4.82227 3.48078 15.8953 97 80 89 1.00756 7 7403 4 3666 2 9875 1 3737 3 5025 6 1693
1039 1.21273 3.51597 16.0129 117 101 102 1.32002 7 7420 4 3670
1040 0.20755 3.51912 15.9834 72 55 63 1.52683 7 7421 4 7463 5 8626 1 4035
1920 -1.11174 6.04402 12.871 55 52 61 0.962494 7 3890 5 3165 2 8682
1041 2.80527 3.48337 16.0429 149 131 129 0.0670717 7 7430 4 7439
1042 5.04705 3.41871 15.9606 169 149 150 1.17102 7 7435 4 7422 1 3735 3 4978 6 3848
2445 2.03191 6.23103 12.4994 64 52 52 0.674833 4 6157 5 7670
1924 3.97328 0.536519 19.4837 44 37 44 0.836845 7 2235 5 3510
1045 0.11045 3.37598 16.1174 85 66 69 1.81767 7 7492 4 3636 1 6119 5 8579 6 2436
2950 7.41913 -0.772867 18.124 50 70 91 1.154 4 2619 2 2147 3 634
1048 0.867191 3.2858 16.2266 86 69 77 1.45693 7 7524 4 3611 5 3760 1 2386
2443 6.46858 3.84869 15.4596 133 113 115 1.1509 7 7227 5 7654 2 9931 3 4837
1928 8.08209 3.4911 15.8561 151 137 134 0.994837 4 3664 5 3533 2 7989 7 7375 3 4522
1049 7.36054 5.69767 13.2847 49 40 47 0.767744 7 7588 4 8467
1050 2.59365 5.98297 12.5692 90 81 84 1.3052 7 7605 4 5144
1932 7.98707 4.45772 14.6326 176 161 156 1.67532 4 4750 5 3544 3 5923
1053 1.76107 3.65803 15.4046 172 149 151 0.132089 7 7614 4 7561
1055 -2.26197 3.39705 16.058 97 77 76 0.258279 7 7620 4 7423
1056 5.38404 3.52465 15.8331 153 133 134 0.640386 7 7622 4 7467
1872 -2.07028 4.96778 14.1847 56 48 50 1.76524 5 2787 2 2669 4 8211
