# 3D point list with one line of data per point:
#   POINT3D_ID, X, Y, Z, R, G, B, ERROR, TRACK[] as (IMAGE_ID, POINT2D_IDX)
# Number of points: 608, mean track length: 3.6766
1116 -3.42776 -1.82171 9.09858 131 191 251 0.513794 5 1705 3 2996 1 2514
1837 -5.21221 0.715581 5.4562 31 89 215 0.480354 5 3610 1 2700 6 1111 4 1228 2 1254
67 -3.54614 -1.48007 8.86136 201 212 249 0.317378 4 457 5 510 3 415 1 275
2034 -4.0882 2.54469 8.46568 16 20 84 1.23609 6 41 2 34
68 -4.57158 -0.740593 6.6766 170 207 254 0.612178 4 458 5 788 3 734 1 1282 6 303 2 364
1527 -2.66404 -0.950528 10.924 119 146 213 0.692248 4 6097 5 3709 3 6089 1 5418 6 6564
451 -4.99441 1.38164 6.11589 48 118 216 0.832148 5 12 3 6 2 10
1012 -3.62272 0.241174 8.92801 85 144 238 1.0785 4 1229 5 2277 3 2084 1 3312 6 2294 2 1246 2 3395
69 -4.56273 -0.683373 6.73623 144 187 252 0.54636 4 460 5 780 3 960
70 -3.89385 -0.884691 8.13293 140 174 239 0.363256 4 465 5 524 3 532 1 424 6 447
1521 -4.16124 0.0452353 7.7683 49 84 165 0.193432 4 6241 3 6076 6 3535
3154 -4.37501 4.03311 6.05836 76 42 1 0.73997 4 2658 6 4744 2 4103
2851 1.64924 6.28313 12.1875 77 50 21 0.552667 4 996 6 1448 2 685
461 -3.58988 -1.17684 8.75932 132 168 254 0.641313 5 113 3 92 1 95
71 -4.5685 -0.389359 6.73001 171 197 247 0.303895 4 467 5 1157 3 446 1 725
72 -4.58696 -0.303646 6.71447 115 195 253 1.03055 4 470 5 570 3 449 6 451 2 371
471 -3.49719 0.418521 9.22677 89 136 218 1.54027 4 291 5 128 3 109
1188 -4.11861 0.0476312 7.79036 102 133 206 0.523697 4 1592 3 3156 1 2701 6 1566 2 2827
1845 -2.80579 0.732989 10.8431 40 110 169 0.232154 3 3657 1 2848 2 5183
1016 -4.39582 0.812217 7.33651 67 114 204 1.51129 4 1246 3 2089 1 3325 6 1580 2 1769 2 5151
73 -4.86542 -0.0412104 6.04155 158 187 247 0.698087 4 471 5 1332 3 927 1 1082
74 -2.83678 -0.470253 10.5905 161 186 248 0.831537 4 484 5 384 3 531 1 349 2 589
2871 0.987095 6.79507 10.5874 50 22 8 0.612272 4 1038 6 990 2 804
465 -3.71168 -0.586487 8.63722 72 123 230 0.959039 5 168 3 98 1 162 6 4116
1190 -3.16783 -0.580164 9.77465 86 153 255 0.693231 4 6131 5 3693 3 3158 1 2692 6 6601 2 3317
75 -4.28593 0.213673 7.47266 92 121 191 0.423884 4 490 5 1116 3 893 1 752 6 466 2 576
2042 -4.46466 -0.906418 6.8303 0 159 253 1.08226 4 79 6 78 2 115
76 -3.51374 -0.0225573 9.08834 140 192 252 0.995664 4 491 5 382 6 320 2 381
1535 -3.25098 -0.516388 9.63176 59 99 186 0.355528 5 4279 3 6106 1 5459
3160 1.21341 6.20651 13.1221 42 16 0 0.724967 4 2559 6 4651 2 4130
459 -3.26352 0.68487 9.74545 72 122 209 1.18029 4 193 3 85 1 100 6 164 2 139
1020 -4.15528 0.831684 7.80163 35 105 214 0.674525 5 3777 3 2098 1 1802 6 2206
77 -3.60813 0.132744 8.97918 152 178 235 0.809893 4 494 5 1097 3 649 1 764 6 469 2 575
78 -3.56802 0.254904 8.99949 51 148 226 0.243841 4 497 5 386 3 311 6 558
1529 -3.59715 -0.298548 8.93083 37 95 200 1.41578 4 6159 3 6091 1 5468 5 7072 6 3895 4 3519 2 4895 2 4911
469 -4.19657 0.0940726 7.67685 94 126 197 0.334632 5 175 3 103 1 115
801 -3.94055 -0.401164 8.10666 116 160 255 0.316972 5 1127 3 1113 1 1087
80 -3.92472 0.549717 8.24806 138 168 230 0.679757 4 502 5 1090 3 875 1 954 6 474 2 563
479 -3.87647 -0.129107 8.3067 74 110 196 1.04635 5 199 3 135 1 153
1196 -4.22492 1.64986 7.78854 63 116 160 0.287947 5 4544 3 3192 1 5895 6 6247
1853 -3.70061 -0.680752 8.53801 67 133 254 1.53369 3 3765 5 4093 1 3027
960 -3.95463 -0.152693 8.15384 82 141 248 1.27666 5 2349 3 1914 6 1554 4 6170
81 -3.79304 0.657726 8.60158 142 178 231 0.438975 4 507 5 614 3 490 6 482 2 514
1318 -3.83143 -1.57567 8.21455 102 160 239 0.270094 5 5758 3 3526 1 4977
82 -3.62627 0.632603 8.9489 0 140 217 0.540127 4 508 5 391 3 316 1 355 6 483 2 556
1827 -3.04579 -1.17031 10.16 9 89 210 0.939153 3 3777 5 3599 1 2467
1198 -3.69003 1.7618 9.01269 87 120 195 0.363484 4 4029 3 3195 1 6625 6 7271 2 5419
83 -2.67112 0.53845 11.1004 0 99 158 1.20036 4 513 5 416 1 371 6 490 2 398
1986 -4.08914 1.6017 8.06826 95 136 154 0.845385 4 1299 1 5957 6 2431 2 1933
805 -4.3798 0.120283 7.31642 2 79 197 1.15628 4 1204 3 1122 1 5416 2 848
84 -2.83789 0.718374 10.7707 116 167 210 0.354143 4 524 5 324 3 255 1 238 2 402
1479 -4.55805 -0.363152 6.8341 62 169 255 0.22259 5 6763 3 5857 1 6783
467 -4.94554 0.502046 6.02685 28 78 208 1.49176 5 196 3 100 1 158 6 69 5 768 2 87
964 -2.42801 -1.40477 11.3638 62 122 221 0.589392 5 1373 3 1926 1 1496 6 4109
85 -3.78175 0.922871 8.69434 148 168 231 0.997877 4 528 5 1056 3 849 1 5685 6 503 2 541
86 -2.56213 0.841142 11.3941 0 54 86 0.527463 4 532 5 424 3 528 1 384 6 673 2 538
1473 -3.73624 -1.15887 8.45522 7 111 235 0.351465 5 6735 3 5832 1 5122
3234 -0.912568 -1.12094 15.0822 1 3 0 0.480192 4 5795 6 3507 2 4937
2867 0.0199531 6.64111 12.4407 93 65 26 0.191372 4 2667 6 3330 2 781
477 -4.16933 -1.06604 7.54983 115 165 253 0.57595 4 155 5 185 3 131 1 217 6 143 2 173
87 -3.48113 0.972104 9.34789 129 166 211 0.34611 4 533 5 405 3 326 1 367 6 635 2 513
1316 -3.75374 -1.64557 8.35677 106 173 255 0.242994 5 5751 3 3523 1 4304
809 -3.23607 -0.496613 9.65248 88 116 195 0.400341 4 1578 5 1108 3 1129 1 924 2 1214
88 -3.39905 0.986582 9.57494 0 106 140 1.38913 4 534 5 411 1 485 6 507 2 408
968 -2.69627 -1.47242 10.7333 55 114 215 2.24627 4 3036 3 1943 2 1190 2 3272
89 -2.59421 0.969106 11.303 116 144 181 0.655674 4 536 5 427 3 341 1 389 6 509 2 410
1326 -3.82592 -1.49827 8.21663 78 147 239 0.217255 5 5783 3 3552 1 4328
90 -3.50905 1.11233 9.34184 85 144 188 0.559567 4 537 5 637 3 617 1 487 6 667 2 533
3368 -3.28294 2.20184 4.83199 92 76 87 0.806156 4 1365 2 2020
91 -3.97415 1.15425 8.26748 0 113 176 0.279599 4 538 5 627 3 505 1 476 6 511 2 411
1994 -2.48788 0.568368 11.592 10 85 163 0.970261 5 3884 1 6035 2 3460
813 -3.90347 0.210151 8.29675 100 147 246 0.398847 5 1398 3 1141 1 939
92 -3.59289 1.12552 9.10292 1 80 125 0.413207 4 539 5 407 3 510 1 370 6 666 2 532
1487 -3.83578 -0.725389 8.33082 101 148 243 0.11919 5 6827 3 5899 1 5227
3240 -0.393108 -0.891775 14.5243 80 67 49 0.25164 4 6311 6 6748 2 4963
475 -2.98826 -2.29489 9.87812 69 58 64 0.750457 5 91 3 128 1 93
3362 -0.930421 6.83902 11.2556 77 54 22 0.86086 4 1116 2 1485
972 -2.56258 -1.67565 11.0101 85 124 219 0.791627 5 2376 3 1951 1 1467
93 -3.82403 1.16608 8.63701 3 86 142 1.38332 4 541 5 402 3 509 1 365 6 512 2 413 2 1711 3 1200
94 -3.73058 1.21157 8.86934 68 126 178 1.00935 4 542 5 634 3 829 1 484 6 514 2 529
1481 -2.99745 -1.43862 10.0805 109 162 255 0.408457 5 6808 3 5882 1 5159
95 -4.46311 1.4406 7.23821 75 156 221 0.433368 4 549 5 1060 3 840 1 801 6 655 2 523
1324 -3.26287 -1.96924 9.39518 35 148 255 0.517681 5 3420 3 3546 6 6396 4 5777
96 -4.60587 1.56615 6.92258 49 130 195 0.795669 4 553 5 621 3 507 1 478 6 522 2 595
495 -2.92406 -0.805325 10.2454 104 132 198 0.770725 4 211 3 192 1 224 5 202 6 233 2 242
1148 -4.37105 -0.521372 7.15243 94 152 255 0.322898 5 3523 3 3060 1 2934
912 -3.55734 0.755174 9.14191 36 106 178 0.44137 4 3812 5 2233 3 1822 1 1824 2 3467
97 -4.27338 1.65695 7.68963 62 118 166 0.321983 4 556 5 404 3 335 1 237 6 524 2 427
98 -4.23979 1.86886 7.80022 62 98 107 0.25017 4 561 5 641 3 525 1 457 6 981 2 764
489 -3.88347 0.734084 8.43883 67 122 205 0.556268 5 242 3 152 1 123
1150 -4.42547 -0.461489 7.04804 110 167 255 0.380249 5 3525 3 3063 1 2951
99 -4.45894 1.08475 7.26569 0 151 237 1.27267 4 630 5 610 3 492 1 462 6 508
1938 -4.29346 -1.28595 7.21829 23 104 233 0.212774 4 4050 1 4984
100 -2.93996 -0.212329 10.4374 161 190 250 0.475857 4 664 5 608 1 450 2 580
1431 -2.22727 5.25723 12.785 103 78 42 1.70186 5 4985 3 5294 1 649
2491 -3.59581 2.37901 6.34586 39 23 75 0.68287 4 3841 6 4055 2 3724
1032 -3.35813 0.715758 9.56797 39 103 188 1.07146 4 6524 5 1458 3 2121 1 1826
483 -3.28923 -0.501843 9.48739 107 160 255 0.582742 5 200 3 143 1 157
916 -4.3926 1.23931 7.38109 9 95 178 0.94457 4 1285 3 1828 1 931 2 1703
101 -3.8125 1.2931 8.64934 94 140 189 0.281537 4 677 5 1033 3 512 1 486 6 660 2 526
102 -3.99911 1.23887 8.20928 104 149 204 0.610147 4 680 5 2224 3 1810 1 1007 6 662 2 528
1425 -4.40356 1.01948 7.29044 45 134 236 0.456314 4 2160 5 4443 3 4851 1 3350 6 2360 2 1882
1034 -2.86253 0.444435 10.647 54 110 193 0.283644 5 2212 3 2124 1 1835
3186 0.76704 6.66169 11.6451 50 23 0 0.834817 4 2727 6 4843 2 4265
493 -5.19113 0.38883 5.48074 7 106 240 0.893783 5 361 3 184 1 336 6 201 4 169 2 335
103 -3.91737 1.18556 8.39612 86 146 204 0.472525 4 685 5 1456 3 1198 1 1008 6 1279 2 1011
104 -3.16539 0.0792601 9.94316 104 152 214 0.379554 4 686 5 612 1 772 6 1231 2 966
503 -4.02064 -1.1912 7.80853 126 173 255 0.314662 5 256 3 206 1 274
1092 -4.633 2.58214 7.04393 14 61 103 0.76581 5 3895 3 2218 1 3243 6 8720 4 3450
920 -3.51839 0.654118 9.25643 73 129 211 1.45503 4 1247 5 2457 3 1833 1 1820 6 1649 2 1335
105 -4.33209 1.06006 7.46718 100 148 213 0.405835 4 690 5 1431 3 1171 1 972 6 1272 2 1001
106 -4.55044 1.0142 6.95867 96 159 234 0.575999 4 698 5 1413 3 1163 1 963 6 675 2 995
497 -3.18284 -0.772224 9.76454 120 169 255 1.38579 5 198 3 195 2 375
107 -5.20342 1.04859 5.52178 148 204 255 1.02226 4 703 5 3673 3 6173 1 5601 6 681 2 989 2 5189 6 3518
1946 -3.78364 -0.640863 8.37978 28 86 211 0.100491 4 3045 5 4084 1 5269
108 -3.18139 0.497918 9.91454 3 124 195 0.713002 4 708 5 631 3 498 1 471 6 695 2 558
1439 -3.67443 0.0901547 8.79424 55 79 123 0.377832 5 7216 3 5602 1 5597
491 -2.52652 0.446616 11.4274 4 81 156 0.646178 5 133 3 158 1 102
924 -4.68838 1.14397 6.69237 52 114 217 0.439847 5 3762 3 1849 1 2779
109 -3.89856 0.620695 8.19376 97 141 209 1.0725 4 709 5 1086 6 936 2 559
110 -3.72718 0.561899 8.73216 145 177 234 0.792173 4 710 5 1078 3 866 1 1387 6 1241 2 977
1433 -4.21018 -1.06944 7.41466 104 168 255 0.354856 5 5811 3 5577 1 5077
501 -5.28636 -0.0876172 5.19366 109 159 255 0.888718 5 552 3 203 1 422
111 -3.83582 0.400231 8.46474 111 151 220 0.49498 4 717 5 1094 3 879 1 766 6 1113 2 971
112 -3.30087 0.233179 9.62645 160 191 246 0.509939 4 719 5 1075 3 1161 1 777 2 967
511 -2.69748 1.46581 11.2574 60 95 135 0.258404 4 340 3 240 6 354 2 270
1100 -3.25487 -0.0354078 9.68812 73 145 254 0.154101 5 4434 3 2924 1 3303
992 -3.66784 -0.156388 8.68482 70 130 231 0.314413 5 3692 3 2046 1 3176
113 -3.15423 -0.129258 9.849 109 162 234 0.60989 4 729 5 1092 6 708 2 964
114 -3.23071 -0.184029 9.50966 110 164 241 1.57845 4 733 5 1101 3 882 6 714 2 956
505 -3.85991 -1.38832 8.1217 0 133 255 1.20136 4 418 5 182 3 208 1 213 2 344
1102 -2.14348 0.436931 12.2042 0 46 101 0.913634 4 704 5 1503 3 2927 6 689 2 553
115 -3.33219 -0.889325 9.35943 123 171 237 0.414322 4 753 5 1126 6 1198 2 934
2018 -4.33656 0.276941 7.31973 143 165 222 1.38329 4 6317 5 7043 3 7912 1 2711 5 2342 4 1217 6 1223 6 6805 2 1238
116 -4.67682 -0.233787 6.53426 139 184 249 0.476281 4 754 5 1330 3 1094 1 1484 6 749
499 -4.29337 -0.371348 7.32811 131 170 255 0.118867 5 359 3 199 1 332
996 -4.8497 0.667507 6.2798 31 78 178 0.462478 4 1679 5 3654 3 2055 1 3236 6 1604 2 1828
117 -3.92197 -0.666459 8.13227 137 176 235 0.642548 4 755 5 1138 3 917 1 729 6 752 2 932
118 -3.31893 -1.15711 9.42346 121 170 247 0.256746 4 760 5 580 2 925
1505 -4.74527 0.285148 6.41587 14 107 234 1.11286 4 1203 3 5984 2 1233
3138 2.55576 5.63778 13.9779 64 38 1 0.129752 4 4419 6 4488 2 3998
509 -3.15699 1.82955 10.2126 64 76 152 0.848851 5 308 3 238 1 181 2 766
119 -3.2465 -1.22434 9.57788 116 165 234 0.416624 4 762 5 1141 3 1097 1 723 6 758 2 606
120 -4.33794 -0.595604 7.23599 156 187 241 0.307826 4 764 5 1158 3 936 1 1064 2 928
455 -4.72278 -0.111945 6.37613 136 178 253 1.53426 5 84 3 51 1 77
1000 -3.66982 -0.0905487 8.83351 61 119 219 0.730582 5 4325 3 2064 1 3224
121 -4.05504 -0.878864 7.81391 159 190 238 0.637047 4 768 5 1315 1 1456 6 1510 2 2760
122 -4.06849 -1.09756 7.76587 198 211 246 0.727959 4 772 5 1298 3 965 1 1279 2 612
2855 2.94058 5.32146 14.9088 46 21 0 1.41048 4 1431 6 907 2 716
1110 -3.04579 -2.15715 9.82457 0 126 232 1.64236 5 1274 3 2987 1 1402 2 2732
123 -4.22765 -1.14219 7.4348 171 215 251 0.919326 4 774 5 1721 3 1421
2026 -4.47865 0.549045 7.06621 71 107 192 1.2537 5 7111 3 6168 4 3709 3 6174 1 5584 6 6872 2 5091
124 -3.65671 -1.56784 8.57329 197 219 255 0.205278 4 775 5 795 3 625 1 686
1519 -2.45218 -1.13996 11.3273 76 96 158 0.540038 4 6085 3 6064 1 3095 5 3704
3144 1.83278 5.93216 13.5838 55 28 0 0.656134 4 2505 6 4565 2 4062
507 -5.17825 -0.389531 5.42078 93 155 255 1.46927 5 259 3 210 1 375
1004 -4.15284 0.323328 7.78498 103 149 247 1.67433 5 2321 3 2071 1 2731
125 -5.16443 0.517386 5.52544 186 223 255 1.40164 4 776 5 1366 6 325
126 -3.65197 1.66733 9.04811 133 152 216 0.520329 4 781 5 765 3 805 6 849 2 768
1513 -4.97339 0.5483 6.00768 61 102 207 0.701926 4 3672 3 6028 6 3626 2 5054
453 -3.46093 -0.514859 9.21267 106 159 251 0.906892 5 46 3 23 1 23
127 -4.17751 1.43142 7.86116 145 172 213 0.269054 4 892 5 1048 3 832 1 812 6 656 2 1020
785 -4.32965 -0.542895 7.21533 114 171 255 0.278692 5 1324 3 1087 1 1470
128 -4.29023 2.32441 7.75462 32 52 85 1.37847 4 968 5 1002 3 1001 1 837 6 956 2 748
129 -4.05915 2.14925 8.22517 108 121 130 0.134268 4 977 5 998 3 788 1 836 6 972 2 1047
314 -3.13984 0.622414 10.0518 33 120 175 0.407553 4 3792 5 3331 3 3435 1 2819 6 6950
130 -4.12811 2.10839 8.07225 42 53 60 0.238266 4 979 5 1009 3 791 1 833 6 1308 2 1046
1811 -3.69887 1.80631 8.99398 13 46 120 0.313501 5 2583 1 1898 6 7290
131 -3.95939 1.95509 8.43776 32 27 48 0.471042 4 982 5 599 3 796 1 507 6 1306 2 1287
1207 -5.12814 0.65306 5.64829 46 90 198 0.817022 5 4144 3 3224 1 3135 6 3636 4 1227 2 3407
789 -4.46079 -0.390331 6.96452 50 146 246 0.228583 5 1333 3 1095 1 1481
132 -4.12305 1.92704 8.0632 51 67 82 0.204473 4 985 5 1016 3 804 1 499 6 1305 2 1042
133 -4.36504 0.83984 7.36494 164 190 249 0.699775 4 1108 5 1409 3 1156 1 1385 6 1253 2 887
318 -4.6192 2.31307 7.02504 4 29 80 0.719376 4 3837 5 7379 3 3676 1 6587 6 7539
1193 -4.01502 1.52404 8.24197 117 148 163 0.360928 5 4549 3 3166 1 3156
2008 -3.80597 5.81442 9.32379 46 31 0 2.2206 5 6210 1 6713 6 2923
135 -3.03787 -2.05639 9.89795 187 201 239 0.890591 4 1157 5 534 3 624 1 599
1300 -3.71885 1.11134 8.80897 44 109 185 0.373686 4 3889 3 3474 1 2873 6 3818 2 5233
3243 -4.46121 0.306179 7.00188 142 157 228 0.538757 1 927 4 3634 2 5026
3034 -0.141625 7.28155 9.43732 39 11 0 0.678306 4 1677 6 5483 2 2549
312 -3.66864 0.621549 8.86734 118 178 248 1.27989 4 3758 5 7268 3 1841 1 1806 2 3121
793 -4.62669 -0.159228 6.6675 82 128 248 0.120658 5 2382 3 1102 6 748
136 -4.11234 -1.2478 7.6437 136 196 246 0.479807 4 1159 5 796 3 1417 1 1272 6 1499
137 -2.93592 -1.53466 10.1746 186 200 249 0.724024 4 1166 5 1340 3 1967 1 1839 2 1188
1310 -3.97841 -1.62389 7.83685 79 85 99 2.32828 5 3378 3 3498 2 2727 3 5669
3261 4.08141 4.06477 18.7751 82 64 44 0.503192 4 5439 6 8182 2 5775
258 -2.94484 0.250372 10.437 129 163 220 0.814251 4 3154 5 1051 1 791 2 1256
138 -3.94779 -0.878655 8.03485 153 182 238 0.309891 4 1168 5 1322 3 1080 1 1055
1819 -2.31624 1.81356 12.0817 81 89 100 1.09274 5 2686 1 1963 2 5417
3352 -5.0023 0.840371 5.99663 45 93 178 2.31935 4 1240 6 1246 4 3737 5 4254 3 3344 1 3259 6 3713 2 1484
139 -4.12229 -0.773326 7.70765 155 183 237 0.660439 4 1169 5 3518 3 3054 6 1515 2 1191
268 -2.9536 0.826773 10.5574 60 141 189 0.421743 4 3200 5 1484 6 2352 2 1880
1215 -3.23099 -0.622592 9.69821 50 119 227 0.353536 4 3464 3 3253 6 4152
797 -3.15473 -1.14577 9.81371 97 145 246 0.248427 5 1367 3 1106 1 1080
140 -3.94494 -0.832157 8.03381 173 197 254 0.631677 4 1170 5 2388 3 1974 1 2604
3346 -4.77331 2.66883 6.75962 152 186 229 0.0942626 6 5565 2 7296
141 -3.77764 -0.94475 8.43212 142 172 226 0.479682 4 1171 5 752 3 932 1 720 6 1192 2 1414
262 -3.8605 0.65808 8.43975 117 149 210 0.326613 4 3169 5 3786 3 2099 6 2323 2 1843
1201 -3.8717 -0.279817 8.32012 107 156 255 0.6727 5 3637 3 3204 1 3094
142 -3.79093 -0.884563 8.40548 179 201 243 0.680807 4 1173 5 1147 3 928 1 1066 2 926
143 -4.48753 -0.442397 6.92867 138 192 254 0.718676 4 1175 5 2393 3 3684 1 1472
1308 -2.47127 0.461593 11.5699 120 180 249 0.970448 4 6496 5 2191 3 3494 1 2844 6 3727
256 -2.87815 -0.200133 10.5428 125 164 229 0.481325 4 3128 5 1235 3 1862 1 1611 6 3479 2 2832
865 -3.40123 -1.80245 9.13335 106 148 255 0.16763 5 1713 3 1419 1 2520
144 -3.78714 -0.830986 8.45621 155 178 238 0.797366 4 1176 5 1347 3 1099 2 1193
145 -3.2068 -1.14258 9.59764 109 164 237 1.5004 4 1177 5 1131 3 3088 6 754 6 4096 2 927 2 2764
266 -3.97078 0.790138 8.20783 98 145 215 0.410637 4 3185 5 3789 3 2102 1 1850 6 2339 2 3461
1891 -3.11595 1.81745 10.2932 4 23 55 1.53007 3 6522 5 7728 1 3349
147 -4.88088 0.151762 6.11196 166 201 255 0.347813 4 1190 5 3567 3 1939 6 1546
276 -3.82784 1.12401 8.5794 63 142 203 0.466612 4 3227 5 2517 3 2136 1 2823 6 2380 2 3512
1159 -3.05635 -1.33345 9.94556 109 156 255 0.363725 5 3566 3 3081 1 2608
869 -3.55861 -1.40835 8.81859 79 132 247 0.303671 5 1305 3 1532 1 1432
148 -2.87194 -0.74265 10.3997 174 201 247 0.526465 4 1191 5 594 3 896 1 748
149 -2.83397 -0.726553 10.5219 161 185 237 0.782427 4 1194 5 1396 3 891 1 926 2 941
270 -3.65279 0.942944 8.96114 87 157 220 0.449986 4 3202 5 2513 3 3440 1 3414 6 2358 2 1883
1209 -5.24215 0.75857 5.43432 142 162 248 0.295046 5 3616 3 3236 1 5483
150 -2.63341 -0.775603 10.9761 143 179 241 0.711489 4 1196 3 1133 6 1206 2 1211
3259 3.05362 3.2868 15.1729 196 179 153 1.52739 4 5377 2 5693
264 -3.99299 0.742812 8.16897 108 148 211 0.578471 4 3178 5 4454 3 3405 1 2782 6 3730 2 1853
873 -4.31318 -0.935622 7.20687 92 163 255 0.436141 5 1944 3 1618 1 2564
153 -2.84822 -0.26567 10.5834 161 190 244 0.550938 4 1218 5 609 3 880 6 1221 2 961
1390 -3.70813 -0.853892 8.56215 70 127 232 0.306745 5 4056 3 3725 1 2962
3213 2.15778 -2.09752 17.9353 180 175 167 0.650836 4 6160 2 4836 6 3438
274 -4.01598 1.12255 8.15947 59 133 194 0.230727 4 3224 5 4486 6 2378 2 2668
154 -5.19461 0.628991 5.48846 149 207 255 0.688273 4 1224 5 3596 3 4842 1 5426 6 1233 2 865
1899 -3.36553 1.96871 9.73565 8 29 74 1.24634 4 7893 5 7694 1 3395
155 -3.39987 0.316476 9.40797 138 169 224 0.385465 4 1231 5 1076 3 868 1 778 2 1253
284 -3.27829 2.87733 10.8399 4 1 0 3.59367 4 3392 5 8884
1167 -3.99236 -0.465278 7.97269 82 124 232 0.0754261 5 3577 3 3102 1 3042
877 -4.70193 2.64572 6.87762 82 126 186 1.12205 4 2027 3 1747 1 6688 2 2042 5 2574
156 -3.05102 0.217972 10.2052 129 160 215 0.899213 4 1232 5 1059 1 785 2 1249
157 -3.81864 0.443399 8.53293 142 180 242 0.863363 5 2272 3 1154 1 616 6 700 2 972
158 -3.21535 0.332195 9.88899 113 152 207 0.959838 4 1235 5 1063 3 1169 1 1388 6 1603 2 1259
159 -4.50985 0.680048 7.05103 154 190 248 0.590263 4 1237 5 3723 2 1264
1388 -4.31619 -0.428481 7.29194 108 169 255 0.634017 5 4030 3 3717 1 2981
272 -2.29549 0.83682 12.0258 92 119 128 0.579931 4 3213 5 989 3 1215 6 2359 2 1886
817 -3.06582 -0.158973 10.1643 90 143 237 0.891886 4 1608 5 2264 3 1151 1 2753 6 3478 2 1235
160 -3.36786 0.423438 9.52506 143 180 239 0.630855 4 1239 5 620 3 491 1 464 2 564
976 -4.78491 -0.179593 6.28005 71 137 249 0.40397 5 3522 3 1971 1 2627
161 -2.90962 0.424247 10.5623 98 151 205 0.538404 4 1243 5 1041 3 1191 1 802 6 1242 2 1265
1334 -3.27814 -1.87921 9.38118 143 192 255 0.268792 5 3438 3 3567 1 2519
162 -3.02257 0.479409 10.2802 57 136 193 0.725758 4 1244 5 1044 1 1000 6 1245 2 1477
1843 -2.78933 0.636249 10.8804 0 71 138 0.803029 5 3813 1 2840 6 3752 2 5165
163 -5.19273 0.946833 5.53111 106 146 224 0.414726 4 1245 5 5658 3 2011 1 3256 6 2212 2 1858
2002 -3.57178 1.61127 9.23213 58 89 172 0.347507 5 3891 1 6579 6 3942 2 5372
3014 -3.24609 4.09605 5.53286 74 36 0 0.560793 4 2744 6 2938 2 2332
292 -3.3174 -0.415179 9.50432 176 197 248 0.450741 4 3514 5 3706 3 3293 1 5491 6 4193 2 3333
1111 -4.06673 -1.33719 7.70003 2 114 238 0.497281 5 1699 3 2988 1 2531
821 -3.68133 0.446207 8.84116 30 95 190 0.348461 4 1234 5 1082 3 1159 1 774 6 1237 2 1261
164 -4.20896 0.881841 7.71463 101 153 228 0.587 4 1254 5 1424 3 1166 1 968 6 1259 2 987
1495 -4.16263 -0.334768 7.62591 88 138 235 1.23478 5 6864 3 5935 1 5296
980 -4.2766 -0.616924 7.33219 74 135 255 0.385226 5 2394 3 1978 1 2605
165 -3.95421 0.835065 8.24906 140 171 235 0.685971 4 1255 5 1436 3 1172 1 1808
166 -3.59136 0.802037 9.07045 79 139 189 0.393738 4 1256 5 1054 3 850 1 797 6 1258 2 986
1489 -3.60763 -0.762025 8.7585 84 137 238 0.199751 5 4090 3 5922 1 3018
167 -4.53705 0.959287 6.97235 142 181 248 0.282851 4 1257 5 2292 2 1736
1332 -2.89144 0.758753 10.6453 0 92 157 0.556617 5 2557 3 3560 1 2845 6 6230
825 -3.79034 0.733281 8.6146 1 89 180 0.423863 4 1248 5 1026 3 1173 1 657 6 1539 2 1262
168 -3.49722 0.818572 9.27003 118 169 226 0.360788 4 1260 5 1457 3 1194 1 1003 6 1261 2 1740
984 -3.66813 -1.2239 8.58003 62 134 247 0.347858 5 2414 3 1991 1 2577
169 -4.1345 0.932857 7.91661 133 177 234 0.0675407 4 1262 5 2251 3 1170
1342 -3.54463 -1.52111 8.82604 133 183 255 0.124997 5 5830 3 3591 1 5050
3165 1.40886 6.25187 12.609 38 13 0 0.679267 6 7572 2 4163
290 -3.56091 -0.387959 8.93753 140 164 224 0.487488 4 3481 5 7031 1 5407 2 7206
170 -3.212 0.815787 9.90499 107 162 219 0.826136 4 1263 5 1469 1 1020 2 988
1851 -5.08302 2.63211 6.04116 2 47 89 0.753857 4 5595 1 3010 2 3790
3384 1.33055 -3.74587 19.2 67 63 51 0.23675 4 4132 6 6496 2 4768
171 -3.51895 0.895862 9.26024 28 113 173 0.430363 4 1265 5 1046 3 838 1 809 6 2188 2 1762
2010 -3.39711 -1.0037 9.34106 0 99 224 1.19055 3 5913 5 6858 1 6779
300 -4.30828 0.270957 7.39567 82 134 209 0.422809 4 3644 5 7051 3 3299 1 5522 6 3612 2 5030
1119 -3.94088 -1.38031 7.96837 88 157 255 0.382691 5 5790 3 2999 1 4341
829 -3.36896 0.516878 9.53106 5 94 176 0.258251 4 3164 3 1178 6 2318 2 1840
172 -3.26482 0.879713 9.83779 0 111 165 0.456371 4 1268 5 1471 3 833 1 814 6 1267 2 996
1503 -2.78677 -1.1405 10.6253 95 141 233 0.623673 5 4201 3 5972 1 5314
3378 -2.58752 3.54621 6.928 120 88 75 0.229818 4 2438 2 3933
988 -3.79095 -0.871581 8.32117 111 158 255 1.31611 5 2386 3 2012 1 2609 6 1519
173 -4.5513 1.06382 6.972 137 181 246 0.603573 4 1270 5 2275 1 2780 6 1271 2 1723
294 -4.46946 2.17034 7.33509 173 218 252 0.490472 4 3587 5 3829 3 3193 1 3291 6 3595 2 5591
1105 -4.41684 -1.31155 7.02067 33 37 53 2.06655 5 1675 3 2973 1 2507 1 4956
1984 -4.10146 1.57106 8.06753 7 35 61 0.327824 5 7326 1 5918 2 5362
174 -2.74434 0.86067 11.0026 41 135 169 0.745513 4 1271 5 419 3 519 1 381 6 2182 2 1885
1497 -3.30492 -0.897662 9.47146 80 148 255 1.3546 4 6069 5 6920 3 5942 2 3281
175 -4.36095 1.11147 7.40138 108 152 216 0.51205 4 1275 5 3787 3 1837 1 1810
1340 -3.14938 1.89409 10.222 3 4 31 1.6745 5 7733 3 3586 1 4510 2 6468 4 7779
288 -3.47964 -0.449303 9.10996 184 204 254 1.15397 4 3477 5 7033 2 3320
769 -3.23592 -1.80017 9.50738 141 182 255 0.568223 5 1293 3 1054 1 1269
176 -2.99538 0.96619 10.446 0 83 120 0.721601 4 1276 5 648 3 518 1 493 6 1123 2 1003
177 -3.19021 1.03768 10.0086 80 150 183 0.762367 4 1277 5 1482 3 1206 1 820 6 2174 2 1006
1286 -3.22358 1.90541 10.0567 99 110 178 1.67841 4 7839 3 3447 2 5479
298 -4.27464 0.21478 7.48152 81 111 181 0.304996 4 3622 5 7038 6 6786 2 3377
178 -3.41469 1.09057 9.51258 62 138 174 0.500003 4 1280 5 640 3 825 1 490 6 2173 2 1713
1795 -4.96588 0.248585 5.93624 24 98 233 0.21688 3 1110 1 1501 6 728
179 -4.33996 1.45424 7.50271 127 178 218 0.785291 4 1296 5 1451 3 1805 1 1298 6 2153 2 1021
3030 0.737564 7.00165 9.60608 71 47 11 0.964357 4 2860 6 5078 2 2517
308 -4.09674 1.87972 8.10671 151 171 171 0.475609 4 3702 5 3840 3 6402 1 3337 6 7352 2 5491
1191 -4.43406 0.303768 7.1349 73 100 171 0.205051 5 7023 3 3160 1 3171 6 3484
773 -3.48766 -1.56186 8.94385 130 180 255 0.159613 5 1900 3 1058 1 1429
180 -4.29543 1.86546 7.65684 95 145 172 0.481091 4 1315 5 1474 3 1213 1 1041 6 1301 2 1668
181 -4.06037 2.08033 8.21537 29 32 50 0.409904 4 1330 5 1497 3 1225 1 948 6 1125
302 -3.60502 1.45511 9.12983 112 128 185 0.285042 4 3656 5 3843 1 6433
1113 -3.85385 -1.49471 8.15858 74 145 245 0.238627 5 3426 3 2993 1 4324
1992 -2.86328 0.789989 10.7445 0 64 119 1.15758 3 2162 5 2563 1 6017 2 5194
182 -0.962296 2.24435 9.76559 82 30 13 0.574226 4 1335 5 2015 2 1654
3163 1.76247 6.1218 12.5468 50 23 0 0.925158 6 6473 2 4150 4 7241
3018 -0.19756 6.64071 12.3209 39 9 0 0.95291 4 4690 6 2877 2 2354
296 -4.31715 1.83715 7.62049 66 122 153 0.499213 4 3593 5 2539 3 2178 1 2854 6 3773 2 3630
777 -3.76662 -1.23053 8.37956 92 154 253 1.34297 5 1304 3 1065 1 1440 2 4762 4 6024
185 -3.34571 3.70572 6.71395 167 148 104 0.510719 4 1461 5 2704 6 1952 2 1792
1294 -2.59844 0.895584 11.3564 31 90 135 0.689898 5 4078 3 3463 6 6234 2 5213
3245 1.00587 -0.0846993 16.7894 41 40 36 0.555448 4 6480 6 6930 2 5117
306 -3.17376 0.0278279 9.89811 120 170 239 0.358716 4 3683 5 3780 3 5605 1 3323
186 -3.44289 0.305523 9.30938 160 186 245 0.343299 4 1518 5 1432 3 1853 1 1386
1803 -3.69686 0.347554 8.7983 9 82 178 1.04373 4 1628 5 1416 1 1618 6 1596 2 1250
316 -3.19215 0.686305 9.96756 106 171 221 0.746107 4 3811 5 2526 3 2130 1 2822
1199 -2.67144 -1.08579 10.8273 73 127 226 1.34101 5 592 3 3200 2 4803
781 -3.78126 -1.11837 8.32428 118 158 251 1.33486 4 4109 5 779 3 1072 1 1290 6 3403 2 3265
188 -3.61329 -1.51501 8.69681 193 216 255 0.337501 4 1531 5 2033 1 2546 6 1503
3330 -0.647872 7.0635 10.1297 45 19 0 1.46448 4 7665 6 8153 2 6851
189 -3.54148 0.332496 9.09868 147 183 243 0.329901 4 1532 5 1427 3 1157 1 1730 2 1251
310 -4.16207 1.87985 7.96105 90 111 108 0.481991 4 3728 5 2555 3 2186 1 2866 6 3694 2 6974
1185 -4.34931 0.164467 7.27697 82 120 202 1.16691 4 1596 3 3150 1 3131 6 1570 6 3471 2 2829
2000 -3.65772 1.53145 9.0459 77 114 182 1.49826 5 7395 1 6514 6 7167 4 3271
190 -4.28177 -0.965647 7.28721 146 188 245 0.478832 4 1534 5 1925 3 3022 1 2563
191 -4.32533 -0.888277 7.21017 138 183 243 0.422774 4 1536 5 1297 3 1060 1 1441 6 1181 2 1747
1292 -3.675 1.00757 8.91694 10 92 168 0.425841 4 6581 3 3460 1 3429 6 7023
849 -4.59528 2.31589 7.07234 80 110 174 0.766963 5 1485 3 1221 1 827 6 1318 2 1641
192 -4.27846 -0.694179 7.33668 169 192 236 0.521489 4 1538 5 2406 3 1077 1 2597 2 2762
1574 -3.92639 1.02889 8.34989 29 94 178 0.439691 5 3808 3 6238 1 2804 6 2367 2 3499
2599 -3.29615 -0.0163053 9.64738 25 137 240 1.47581 3 3383 5 7246 6 6804 2 2840
193 -4.53815 -0.446018 6.79848 184 209 254 0.491573 4 1541 5 2403 3 1981 1 2607 6 1521 2 1194
1366 -4.21226 -0.728263 7.5053 90 139 244 0.684298 5 6464 3 3663 1 5158
378 -2.4981 -0.99874 11.2785 128 132 167 0.665173 4 6108 5 7182 3 3163 1 5453 6 6569 2 4825
194 -3.34195 -1.03485 9.35769 179 207 252 0.629861 4 1557 5 1361 3 1944 6 1195
1875 -4.77931 0.61729 6.41322 0 42 144 0.190721 3 2052 1 3227 2 1825
195 -3.89385 -0.487297 8.18987 149 175 232 0.434798 4 1561 5 3586 3 3106 1 2652 6 1527 2 1202
324 -3.07157 0.938588 10.2792 70 122 167 0.499334 4 3865 5 3838 3 3760 1 3262 6 7018
853 -3.96234 2.48992 8.53633 51 56 62 0.931651 5 1514 3 1236 1 1046 6 1316 4 1351 2 1064
197 -4.30887 0.153933 7.38449 89 114 187 0.383055 4 1597 5 3644 3 3152 1 2699 2 2830
382 -3.28107 -0.435993 9.56992 110 131 184 0.232012 4 6162 5 7133
1257 -4.04116 1.83309 8.23568 5 27 70 0.205234 4 7830 5 7388 3 3369 1 2868 6 7324 2 5472
2596 -4.23179 0.135509 7.62253 91 122 205 2.08542 4 6272 6 6758 2 4998 6 3566
198 -4.30373 0.212795 7.40182 83 107 176 0.457887 4 1603 5 3652 3 3161 1 2706 6 1576
199 -2.99911 -0.218691 10.2869 138 169 233 0.588912 4 1605 5 1087 3 1015 1 946 6 1575
1364 -3.32341 1.94778 9.85537 107 115 179 0.758506 5 3834 3 3658 1 4470
857 -4.32781 -1.15625 7.17186 74 167 255 0.411963 5 1696 3 1405 1 2537
200 -4.9423 0.545074 6.03048 93 120 200 0.29159 4 1614 5 6954 1 5467 2 1813
1582 -3.29089 0.777109 9.74332 28 105 185 0.401539 4 8147 5 4534 3 6255 1 3431
201 -3.62951 0.121133 8.81382 154 183 225 1.06266 4 1615 5 2298 3 2076 1 5611 2 1240
1374 -4.50557 -0.398756 6.84434 5 128 239 0.256022 5 4002 3 3686 1 5198
3325 0.807857 4.67331 12.9977 115 73 33 1.96263 4 7097 6 5781 2 6707
322 -3.72807 0.984277 8.79686 3 140 207 0.386811 4 3860 5 7294 3 3439 6 7013 2 5211
202 -5.20352 0.682378 5.47077 122 168 255 0.220196 4 1618 5 6928
2600 -4.64904 0.423791 6.69413 140 157 239 1.19429 1 5497 6 6820 2 5045
1279 -3.11612 0.59475 10.1027 4 83 160 0.536938 4 6495 5 2218 3 3431 1 1834 2 5146
332 -3.44539 1.50651 9.51666 144 159 215 0.488378 4 3968 5 3894 3 6393 1 3206 2 5330
203 -3.7143 0.209284 8.89402 163 191 255 0.773169 4 1619 5 3755 6 2290 2 1811
3416 -4.1008 0.0866503 7.83335 43 84 171 1.24292 4 734 5 1137 3 895 1 929 6 713 4 3868 1 5502 2 960
204 -3.02332 0.156043 10.2688 147 184 241 0.614511 4 1710 5 1065 3 1167 1 969 6 1594 2 1818
861 -2.38256 -2.6378 11.1988 53 52 15 0.960703 5 1277 3 1412 2 4647
1265 -3.57525 0.158773 9.00138 33 111 230 0.394818 5 4414 3 3381 2 5047
326 -5.19839 1.2138 5.54871 10 16 40 0.251186 4 3876 5 4318
205 -4.37544 0.363937 7.25294 139 180 246 0.933318 4 1812 5 3676 3 2059 1 3220 6 1229 2 1807
2595 -3.59655 -0.118602 8.8896 107 147 234 0.304123 3 6153 6 6732 2 7217
3410 -4.67493 -0.469161 6.513 14 129 253 1.38044 5 260 3 279 1 286 2 1192 4 765 6 757
206 -3.83177 0.620879 8.4936 99 138 197 0.36195 4 1839 5 1234 3 1848 1 1803 6 1876 2 1842
1581 -2.10812 0.0854253 12.2553 92 90 83 0.318371 5 3839 3 6253 6 6881
1372 -4.05706 -0.752493 7.78121 130 168 255 0.480875 5 4004 3 3678 1 5171
207 -4.59306 2.59208 7.26857 24 59 78 0.909182 4 2041 5 2495 6 2538 2 2028
1590 -2.38909 0.42835 11.716 7 49 120 1.30631 5 7429 3 6281 1 3088
208 -4.82094 2.44123 6.59886 163 195 241 0.700507 4 2048 5 2552 3 2930 1 3162 6 2529 2 3730
929 -4.24039 0.713596 7.54113 85 141 236 0.291805 5 2291 3 1858 1 1649
330 -3.93424 1.91181 8.50105 151 156 164 0.00949855 5 7464 3 6430
1446 -3.33917 -1.96438 9.22643 129 198 255 0.282109 5 3408 3 5734 1 2500
209 -4.45136 2.18546 7.37606 74 121 151 0.452147 4 2071 5 2196 3 1764 1 1333 6 2495 2 3673
2615 -1.26658 0.870306 9.61555 180 190 218 0.763231 4 3845 6 7016
1955 -4.33931 0.210475 7.30218 93 121 195 0.570586 4 3598 5 7012 1 5484 6 3590 2 5009
210 -4.01763 1.98505 8.31788 60 64 75 0.323585 4 2089 5 2181 1 1338 6 2470 2 1969
1223 -4.07025 0.0370202 7.88856 29 70 158 0.476113 4 3556 5 4231 3 3283 1 5481 6 3536 2 4969
340 -3.21178 1.70155 10.0657 129 132 177 0.414199 5 7653 3 6485 1 4426
549 -4.58015 1.62473 7.01692 11 107 184 0.891161 4 343 3 327 1 364 6 362 2 276
211 -4.0277 1.94197 8.29034 145 157 201 0.516065 4 2094 5 1489 3 1765 1 1062
212 -3.33514 1.80824 9.79522 138 149 211 0.441709 4 2107 5 988 3 787 1 843 6 2136 2 1673
933 -3.28584 -0.052592 9.63617 73 141 240 0.391448 5 1233 3 1867 1 1553
1273 -3.38524 0.612981 9.4769 59 113 196 0.055141 5 4490 3 3423 1 5682
334 -4.21316 1.54753 7.80407 121 162 194 0.442833 4 3983 5 7311 1 5753
213 -3.72905 1.75996 8.91597 136 155 213 0.571155 4 2110 5 1006 3 800 1 828 6 2137 2 1944
214 -4.21767 1.61116 7.80174 93 133 160 0.261203 4 2118 5 2528 3 2015 1 1314 6 2246 2 1934
2612 -5.21197 1.0632 5.4917 18 25 73 1.52329 4 1122 6 6998 2 5196
1589 -4.2221 1.47057 7.75107 43 101 149 1.04586 4 6732 5 4515 3 6278 1 4864 6 7145 2 5315
1444 -4.26277 -1.24759 7.29708 9 139 255 1.85882 5 5756 3 5729 1 6796 6 3378 2 3232 2 4707
215 -4.12092 1.58609 7.99333 154 180 201 2.04728 4 2119 5 1468 3 6312 3 6322 1 1317 1 5872 2 1932
1598 -2.80738 0.770261 10.8259 7 92 156 0.473793 5 2565 3 6299 1 3276 6 6986 2 5188
216 -4.31159 1.46626 7.54891 85 136 189 0.765356 4 2122 5 2508 1 1300 6 2416 2 1928
937 -3.98234 0.343202 8.11104 89 142 238 0.346803 5 3736 3 1873 1 2742
1571 -3.98422 0.761905 8.19828 61 122 220 0.498923 5 7266 3 6220 1 5662 2 5157
338 -3.88234 1.66032 8.53654 29 47 77 0.63379 4 4006 5 7374 3 2020 6 4203 2 3597
1454 -4.15086 -1.16395 7.55798 26 113 220 0.424465 5 3445 3 5762 1 3031
217 -3.83456 1.41239 8.65136 1 51 90 1.95248 4 2124 5 1472 6 2405 6 2409 2 1923
1963 -4.33001 0.326651 7.36911 66 130 235 0.393039 4 3665 5 7070 1 5544 6 6817 2 5044
218 -2.65232 1.35852 11.2496 27 68 80 0.47161 4 2126 5 982 3 1226
2616 -4.43727 1.06102 7.11542 8 124 228 0.532016 4 3204 6 7020 2 3495
1231 -3.63808 -0.158097 8.82674 75 131 229 0.357532 5 3703 3 3308 1 2713
348 -3.71292 -1.26407 8.53536 111 181 232 0.494243 4 4099 5 3938 3 5818 1 4380 6 6469
557 -3.4183 1.88437 9.65153 83 114 207 0.811251 4 559 5 430 3 349 1 392 6 983 2 765
219 -4.01869 1.28244 8.19519 28 113 178 0.764199 4 2132 5 2518 3 1803 1 1301 6 2395 2 1912
220 -4.08525 1.26909 8.03496 76 142 208 0.343812 4 2135 5 2228 3 2135 1 2821 6 2394 2 1911
941 -2.44278 -0.69927 11.2798 31 124 228 0.460254 5 1091 3 1884 1 760
1217 -3.62064 1.69431 9.2251 56 85 170 1.75592 4 6834 5 7509 3 3259 1 2922 1 6623 6 7230 2 3598
342 -3.22434 0.290704 9.81927 143 182 237 1.0456 4 4035 5 2238 3 3407 1 2786 2 3417
221 -2.77571 1.06519 10.9715 5 84 108 0.649304 4 2141 5 747 3 809 6 2172 2 2669
2611 -2.75123 0.649136 10.9013 34 147 229 0.424323 4 3188 5 2559 6 6969 2 3468
222 -3.92202 1.12605 8.38419 0 109 172 0.279268 4 2146 5 2227 3 1811 1 1831 6 2379 2 1901
336 -3.65646 1.59899 9.04142 77 84 136 0.390377 4 3996 5 2571 3 2929 1 2869
545 -3.34177 0.511083 9.55533 35 107 192 0.749396 4 503 3 318 1 357 5 397 6 477 2 392 5 336
1597 -2.51128 0.591667 11.4365 5 79 146 1.4523 5 2185 3 6298 1 1324 1 6018 2 3464
1452 -4.02602 -1.31837 7.79062 62 137 246 0.16744 5 6626 3 5752 1 5031
223 -3.09185 0.977008 10.2268 90 153 194 0.506379 4 2151 5 2193 3 1788 1 1322 6 2179 2 1892
224 -2.99384 0.808779 10.4043 40 125 164 0.485405 4 2162 5 1023 3 1202 1 817 6 2191 2 1730
881 -4.87134 2.51706 6.47757 0 31 84 0.567032 5 2554 3 1759 1 1888 6 2075 4 1369 2 1623
282 -0.984521 2.00822 9.66962 188 177 135 0.760751 4 3325 5 1547 2 1965
1398 -4.02527 -0.57439 7.889 102 157 255 0.178239 5 4060 3 3743 1 5238
225 -3.47163 0.854938 9.34536 40 117 169 0.531096 4 2164 5 1045 3 737 1 805 6 2192 2 1733
1907 -2.48466 3.7872 11.8648 68 40 1 1.06254 4 623 1 3723
226 -3.17115 0.77613 9.99766 0 106 159 0.96373 4 2168 5 1470 1 1307 3 2140 6 2197 2 1873
1175 -4.01758 -0.198533 7.9583 76 131 233 0.332642 5 3627 3 3127 1 2675
356 -2.64718 0.51001 11.1711 5 135 196 1.48932 4 5083 5 2201 1 1312 3 259
227 -4.14605 0.894309 7.85723 106 157 223 0.313324 4 2173 5 3784 3 2101 2 1872
228 -3.15406 0.71777 10.0493 100 174 235 0.446194 4 2177 5 1466 3 1197 1 1014 6 3755 2 1865
885 -4.32144 2.06364 7.65373 9 64 94 1.05293 4 7967 5 5670 3 1769
1161 -4.00404 -0.523127 7.95016 95 137 245 0.257901 5 3571 3 3092 1 2648
286 -3.73913 -0.504833 8.56006 176 199 254 0.291111 4 3444 5 4141 3 3170 6 6560 2 4827
229 -3.38688 0.747268 9.51895 122 177 237 1.23445 4 2178 5 2222 1 1827 6 2203
230 -4.22205 0.844477 7.68229 135 177 239 0.49677 4 2185 5 2265 3 1850 1 1800 6 2204 2 1863
280 -3.54886 1.86435 9.3197 140 152 212 0.567779 4 3308 5 2455 3 2204
3211 1.13358 -2.02261 17.2077 50 31 14 0.278913 4 3495 6 4156 2 4828
231 -3.44086 0.673292 9.36542 51 130 189 0.572418 4 2191 3 2113 1 1823 6 1601 2 1770
232 -4.23316 0.812946 7.65233 106 155 229 0.292565 4 2193 5 2271 1 2774
889 -4.1894 1.87598 7.90866 94 127 142 0.293198 4 2100 3 1775 1 1329 6 2459 2 1959
1406 -4.10446 -0.366411 7.7482 107 154 255 0.110535 5 4089 3 3786
233 -3.92476 0.755579 8.32183 98 142 210 0.434572 4 2194 5 2252 3 1842 6 1541 2 1857
1915 -2.44398 -2.7033 11.0691 1 6 29 1.48733 5 5740 1 4265 6 6362 4 5975
234 -3.84087 0.583246 8.48538 130 166 230 0.507627 4 2208 5 2464 6 2316 2 1838
1183 -4.86349 0.479621 6.21746 34 81 189 0.707298 4 1804 3 3144 1 3129 6 1587
364 -4.79769 2.55397 6.65162 14 50 82 1.53546 4 5494 5 7397 2 5748
235 -3.86288 0.561078 8.43201 96 144 208 0.560624 4 2210 5 2260 3 1854 1 959 2 1836
236 -4.02654 0.465973 8.20596 159 184 246 2.09874 4 2213 5 2293 6 1236
893 -4.32062 1.74539 7.60653 0 73 130 0.495158 4 5087 5 2211 3 1782 6 6251 2 3614
1169 -3.95243 -0.434587 8.05988 79 128 233 0.397831 5 3587 3 3108 1 3051
237 -3.75755 1.10464 8.75128 90 151 205 0.541288 4 2250 5 2220 3 1808 6 3817 2 3508
238 -4.38428 0.93633 7.34443 112 177 241 0.265433 4 2251 5 3769 3 2096 6 2346 2 3480
352 -3.77078 -0.615398 8.63775 138 167 227 0.609621 4 4153 5 6901
1404 -4.04523 -0.448755 7.878 106 155 255 0.201961 5 4081 3 3771 1 3037
239 -3.92676 1.57262 8.43622 151 169 208 0.795502 4 2270 5 1476 3 1211 1 1037 6 2424 2 1931
240 -4.8817 2.63189 6.48617 205 220 255 0.619171 4 2282 5 7415 3 3406 1 6657 6 4228 2 3778
833 -3.43877 0.610643 9.38835 68 132 211 0.199794 5 1450 3 1186 1 985
362 -4.52772 2.45643 7.36932 74 101 132 1.65661 4 5402 5 7476 3 3295 3 3307
241 -2.28203 -0.204961 12.0041 23 109 178 1.19598 4 2943 5 1042 6 3490
242 -2.80806 0.605742 10.8845 60 159 218 0.916562 4 2945 5 2463 3 2146 1 2836 6 3748 2 3459
1255 -3.66991 1.41253 9.02409 0 18 63 0.205947 5 4569 3 3367 1 4868
372 -2.99031 1.03372 10.4772 57 152 182 0.49184 4 5812 5 2182 3 2174 1 1328 6 6236 2 6268
243 -3.4136 0.919273 9.50561 19 140 193 0.509871 4 2946 5 2215 3 1807 1 1304 6 7002 2 5199
837 -4.39496 1.307 7.37314 40 117 195 0.594008 4 543 5 1440 3 1192 1 796 6 659 2 527
245 -2.69775 2.45841 9.27212 17 10 0 2.05426 4 2954 5 2136 2 5629
360 -4.32729 2.31912 7.67317 181 205 239 0.36876 4 5337 5 7487 3 6498 1 6673 6 7511
3227 -1.26788 -1.22561 15.0912 9 0 6 0.344131 4 5792 6 6674 2 4915
1358 -4.18997 -0.866981 7.47962 114 168 254 0.514042 5 3493 3 3634 1 5130
249 -4.04063 -1.00656 7.79273 188 210 255 0.944408 4 3024 5 3489 3 3038 1 4395 2 3264
1867 -4.37787 0.304877 7.25676 8 54 156 1.70217 3 890 4 6322 5 4230 1 3182 6 467
250 -3.18745 -1.22515 9.71085 176 202 255 0.592287 4 3032 5 1356 3 1952 1 1474 6 3413
1263 -3.59517 0.101715 8.95054 90 135 202 0.359842 5 3747 3 3378 1 4214 6 6809
380 -3.34827 -0.426579 9.44748 151 162 219 0.911576 4 6155 5 7105 3 3287 1 3150 2 4884
251 -3.9297 -0.777272 8.12987 146 179 233 0.89406 4 3034 5 3542 3 3072 1 2617 6 3415 2 2769
3400 -3.95407 1.38701 8.338 69 108 148 1.92097 4 6702 5 4540 3 6297 1 2889 4 2128 3 1204 1 1313 6 2401 2 1921
252 -3.77304 -0.715737 8.40944 147 177 229 0.7353 4 3043 5 3570 1 3001
845 -3.48814 1.29373 9.38384 1 62 103 0.439577 4 2131 5 1024 3 1210 1 821 6 2249 2 1913
1249 -5.16108 0.992404 5.61046 70 136 254 0.805187 5 3669 3 3351 1 5586 6 2199 6 3764 4 1249 2 1867
374 -3.33893 -2.04824 9.2495 4 16 50 0.338172 4 5973 5 3865 1 6802
253 -3.80445 -0.505181 8.40211 147 172 229 0.379201 4 3048 5 3601 3 3114 1 3053 6 4120 2 3295
3394 -3.68594 4.14989 5.8126 64 30 0 0.516249 4 4742 2 6461
1356 -4.16092 -0.905488 7.55567 47 126 244 0.38274 5 5648 3 3626 1 6691
255 -4.45374 0.190742 7.06812 63 131 209 1.8888 4 3095 5 4177 3 1916 1 6746 5 6987 6 2258 6 3559 2 3426 2 4997 4 6263
257 -2.87656 -0.152467 10.5529 140 183 251 0.47511 4 3133 5 2253 3 2088 1 1671 2 3379
688 -3.58727 0.722553 9.09179 74 127 203 0.813121 4 514 5 1057 3 858 1 658 6 492 2 515
1714 -2.66125 -1.24677 10.8819 101 157 247 1.69681 5 6994 3 7939 1 6759
259 -3.8301 0.498764 8.47734 108 149 213 0.387056 4 3155 5 3774 3 2092 1 2767 6 2304 2 3427
261 -3.96692 0.609794 8.18706 106 147 213 0.225989 4 3161 5 3772 3 1855
692 -3.26504 0.362719 9.71617 94 141 229 0.763389 4 2211 5 395 3 863 1 354 1 2790 5 3802 2 1474
263 -3.26109 0.574772 9.78177 92 147 204 0.335144 4 3174 5 1453 3 1965 1 996 6 1797 2 1847
265 -2.77371 0.548444 10.8591 0 113 168 0.48473 4 3182 5 1810 3 1806 2 3454
696 -4.63533 1.06943 6.8197 33 116 222 0.197944 4 530 3 869 2 537
1722 -5.23009 4.16912 6.85864 55 37 17 0.83613 4 1494 6 1894
267 -3.65166 0.911621 8.90274 0 113 176 1.0833 4 3199 5 2226 3 2123 6 2354 2 3489
269 -4.98171 0.918828 9.55416 107 168 248 2.06048 4 3201 5 2246
700 -4.47276 0.90166 7.08555 85 138 230 0.734692 4 515 3 877 1 955 6 495 2 546
271 -3.96384 1.01703 8.26833 105 151 213 0.533947 4 3210 5 4481 1 3392 6 3794 2 3496
273 -3.53801 0.998552 9.22425 34 106 160 0.429205 4 3214 5 2527 3 3471 1 2829 6 6235 2 5217
640 -3.97895 -1.51448 7.89621 105 168 255 0.533587 4 450 5 806 3 642 1 1264 6 768
1666 -3.37257 1.76706 9.71502 3 23 99 1.16049 4 7369 5 7615 3 6479 1 3199
275 -3.46027 1.07523 9.40649 3 81 121 0.705313 4 3225 5 1028 3 2156 1 1023 6 2374 2 1899
644 -3.91146 2.43963 8.63131 78 89 95 0.863055 4 260 5 1153 3 771 1 849 6 2503
279 -3.75901 1.76294 8.84349 88 95 151 0.547597 4 3298 5 1492 3 1768 1 1251 2 3613
281 -3.93077 1.87924 8.48759 25 20 38 0.407369 4 3315 5 2183 3 1766 1 1336 6 7339 2 5737
648 -4.60588 2.56816 7.09495 119 159 220 0.614651 4 952 5 1005 3 781 1 839 6 943 2 1074
1674 -4.85125 2.61057 6.55798 167 190 249 0.7403 4 5531 5 7416 3 6504
283 -3.47564 2.3 6.42034 190 178 155 0.586027 4 3388 5 4077 6 3513 2 2006
285 -4.4681 2.46739 7.32834 134 161 209 0.981509 4 3397 1 3421 5 7492 6 5432 2 3720 2 2014
652 -3.39652 1.69877 9.6588 76 101 190 0.335987 4 1306 3 793 1 511 6 1291 2 1030
287 -2.89701 -0.847849 10.3671 173 192 245 0.53029 4 3451 5 3684 3 2920 2 4823
592 -4.13079 -0.349633 7.69665 82 133 242 0.209499 5 583 3 460 1 737
1618 -4.11721 1.76099 8.03903 118 149 161 1.70347 4 7534 3 6360 1 6297 5 2546 6 7286 2 1950
291 -2.56904 -0.764029 11.1244 149 178 234 0.635192 4 3503 5 3326
3021 1.70428 6.45704 11.0193 50 23 0 0.16672 4 4752 6 5470 2 2405
1991 -2.7745 4.5874 11.532 86 55 1 0.282609 3 5147 1 6007 6 5821
293 -4.42233 0.207285 7.13378 141 182 245 0.558365 4 3576 5 4197 3 6055 6 3570 2 3372
596 -3.65466 -0.296916 8.76842 59 124 234 1.31358 5 591 3 466 1 746 6 4178 2 3327
295 -3.97935 1.34302 8.28639 146 186 233 0.344945 4 3592 5 4529 3 3511 1 2885 6 3864 2 5279
3009 1.60488 6.22589 12.6357 63 36 7 1.10252 4 2590 6 2836 2 2312
600 -4.57169 0.549665 6.91306 93 144 243 1.01705 4 318 5 3690 3 475 6 328 2 389
1626 -2.62015 0.997403 11.2875 105 166 210 1.22983 5 7571 3 6378 1 6595
299 -4.45048 0.285599 7.08482 168 179 235 0.441057 4 3632 5 7008 3 3282 1 5488 6 3604 2 5022
1999 -3.50103 1.42182 9.37144 79 100 153 0.625165 5 2568 1 6482 6 7110
301 -4.40957 0.326876 7.16794 159 183 239 1.45153 4 3650 5 4228 3 6128 4 3662 1 5516 6 6807 6 6814 2 5036
604 -4.47084 0.965598 7.12226 0 101 232 0.334074 4 522 3 485 1 456 6 500 2 544
303 -3.75008 1.45651 8.83306 154 167 207 0.448938 4 3657 5 2547 3 3359 1 3327 6 7128 2 5313
305 -3.5713 0.0972201 9.01662 100 134 151 0.549771 4 3674 5 4401 3 3722 1 3290 6 3614 2 5034
672 -2.33252 0.42134 11.7911 0 45 115 0.99832 5 650 3 830 1 492
1698 -2.50394 1.90512 11.5239 74 80 80 0.886411 5 8828 3 6660 1 852
307 -3.54611 1.93343 9.32513 102 103 154 0.447216 4 3699 5 4402
3037 3.09362 -3.49547 16.6824 92 84 66 0.267914 4 5782 2 2657
2007 -3.45599 1.71735 9.55361 67 93 168 0.604354 5 7550 1 6670 2 5404
309 -2.25798 0.0123523 11.9942 78 139 193 1.03411 4 3721 5 638 3 848 6 6864 2 3405
676 -2.65738 0.395505 11.1106 74 132 206 0.384636 4 705 3 839 1 865 6 1243 2 979
311 -3.34728 0.46083 9.57658 95 149 213 0.490902 4 3742 5 3805 3 3413 1 2793 2 3434
3025 -0.19354 6.89167 10.7636 48 18 0 0.501988 4 2788 6 2232 2 2441
313 -2.6599 0.449882 11.1231 18 108 170 0.678369 4 3765 5 2472 3 2138 1 2830 6 2321 2 3444
680 -2.73966 0.367714 10.9537 41 114 191 0.31727 4 2202 5 635 3 844 1 807 6 3691
1706 -3.82072 1.53003 8.65928 4 11 58 2.17542 4 6777 3 7890 6 7156 2 5332 3 6342
315 -4.34094 0.851416 7.42035 117 165 227 0.543783 4 3796 5 4425 1 3071 6 3754 2 3463
2015 -4.83104 2.60071 6.58365 4 18 42 1.63685 4 4179 5 3851 5 7426 3 6507 1 6654 6 3838 6 5555 2 5767
684 -4.72442 1.45753 6.68391 59 123 210 0.499101 4 550 3 853 1 793 2 522
319 -4.63478 2.31095 7.003 171 209 251 0.756694 4 3840 5 7371 3 7879 6 3891
321 -4.58944 2.31467 7.10402 6 44 87 0.476703 4 3857 5 7385 3 6457 1 6608 6 7536
752 -3.512 0.755124 9.24889 0 86 156 0.65912 4 1121 5 628 3 998 6 2341
1778 -2.76382 0.65298 10.981 5 101 177 0.0451707 5 1019 1 1025
323 -3.7236 1.01364 8.79211 9 113 172 0.920673 4 3864 5 2514 3 3450 1 3425
325 -1.06143 1.82872 9.5647 109 97 57 1.5667 4 3870 5 5685 2 5446
756 -4.1816 -0.996788 7.58474 70 140 252 0.611175 5 3475 3 1006 1 4379
327 -0.981847 2.15822 9.70295 110 97 53 0.559842 4 3879 5 2751 6 3995 2 3658
329 -4.10004 1.3618 8.01724 150 183 238 0.402782 4 3939 5 4519 3 5609 6 7090 2 3548
760 -3.59606 -1.81301 8.72001 32 149 255 0.278367 5 805 3 1039 1 676
1786 -3.83148 1.92118 8.71136 53 81 155 0.474548 4 3778 5 2581 1 1340 2 5502
333 -4.21309 1.51928 7.80481 101 141 176 0.519741 4 3975 5 7310 3 3581 1 5732
764 -3.39093 -1.85777 9.14354 140 190 250 0.3028 5 1280 3 1044 1 1263
335 -4.11325 1.9741 8.09137 146 164 154 0.145377 4 3993 5 3862 3 3220 1 3165 6 6256 2 5528
1062 -4.24741 1.64444 7.75801 15 75 123 0.612592 5 4538 3 2168 1 1315 6 2439 2 5395
337 -3.43788 1.64816 9.5447 100 116 178 1.84724 4 4001 5 2594 3 6426 5 7536 1 6646 6 7212 2 5383 2 5388 6 4024
704 -2.5133 -0.74112 11.269 111 146 229 0.103382 5 1095 3 885 1 758
341 -1.04803 1.75052 9.54955 200 182 152 0.445011 4 4031 5 2465 6 3894 2 3609
708 -4.68864 0.522145 6.62523 88 117 193 0.733189 5 1375 3 892 1 933 6 702 2 572
1060 -2.65645 0.673226 11.2468 0 67 136 0.664618 4 1259 3 2164 1 2851 6 1257 2 1742
343 -1.09858 1.77648 9.52346 205 179 146 0.455875 4 4045 5 2702 6 7313 2 5428
553 -2.4268 0.735854 11.5729 4 53 102 0.97556 4 529 5 317 3 337 1 247
3275 -0.170281 4.22459 10.6968 91 74 41 0.376315 6 5822 2 6030 4 8126
1070 -4.21735 1.80677 7.84389 66 108 133 0.689654 4 3311 3 2180 1 2858
712 -3.03449 -0.731169 10.0939 89 124 208 1.35439 4 1186 5 7082 3 900 1 3109 2 1206
346 -3.83966 -1.37221 8.19867 156 214 255 0.364844 4 4092 5 5808 3 3580 1 4353 6 4046 2 3245
1738 -2.65429 -1.39451 10.9237 64 129 244 0.313661 3 461 5 369 1 260
347 -3.8256 -1.34166 8.18073 147 192 237 0.913401 4 4093 5 5816 3 5782 6 4048
3112 -5.18293 0.865876 5.64493 113 123 210 1.42372 6 2322 2 3445
349 -4.27806 -0.835134 7.31303 165 209 255 0.404409 4 4102 5 3924 3 3616 1 5123
716 -3.86911 -0.177758 8.30239 41 99 213 0.325148 5 1118 3 905 1 743 6 732
3106 -0.694377 -0.935369 14.4125 136 130 118 0.558355 4 3115 6 3468 2 3350
1225 -3.27794 -0.471718 9.57046 107 135 213 0.199302 5 3696 3 3286 1 3147
1068 -3.73266 1.48291 8.86364 83 125 204 1.50989 4 6738 3 2177 1 6177 2 5318
351 -3.20376 -1.23293 9.66519 133 172 230 0.637813 4 4128 5 4064 3 3721 1 5189
656 -2.74374 1.28446 11.0843 10 57 83 0.361218 4 2273 3 799 6 2163 2 1691
1682 -3.25331 1.89369 10.04 31 53 128 0.520027 5 7709 3 6537 1 4476
355 -5.16025 0.396249 5.54457 121 175 245 0.690783 4 5077 5 6838 6 3542
357 -2.46896 2.2872 9.65608 62 42 17 2.04587 4 5256 5 8848
660 -2.17377 0.689321 12.3479 82 119 181 0.34836 4 2161 3 810 6 2194 2 1734
359 -4.4673 2.23934 7.36277 169 208 239 0.133091 4 5317 5 7403 1 6612
664 -2.18718 0.519839 12.3093 35 103 170 0.636351 4 2179 3 816 6 2283
1690 -3.76644 2.27549 8.92154 97 116 189 0.482154 5 3835 3 6585 1 4489 6 3878
363 -1.87386 2.50475 7.14129 84 79 73 1.89943 4 5449 5 4049
365 -4.81827 2.56128 6.61535 15 39 84 0.662448 4 5498 5 7402 3 3424 2 5752
668 -2.92651 0.87197 10.5495 0 76 132 1.79763 4 3203 5 1014 3 820 6 2183 2 1724
736 -3.15657 -1.64906 9.71535 101 151 254 0.521511 5 560 3 948 1 698
1762 -4.11126 2.02589 8.07388 84 110 111 0.681353 5 1013 1 829 2 7268
371 -3.22433 0.501026 9.86059 103 172 231 0.423702 4 5804 5 2506 3 2111 1 2803 6 6226 2 5124
373 -4.4292 2.20873 7.42445 170 209 245 0.467731 4 5829 5 7404 3 6443 1 6603 6 7478 2 5599
740 -3.91821 -1.1241 8.06417 109 157 254 0.591983 5 1036 3 954 1 656
377 -2.36074 -1.07864 11.5726 178 198 253 0.650118 4 6093 5 2304 1 2696
744 -3.57248 -1.45628 8.79826 127 171 251 0.248172 5 778 3 961 1 1276
1770 -2.50361 -0.862205 11.3158 23 100 208 0.116178 3 1888 5 1403 1 932
379 -3.28184 -0.49995 9.5534 110 130 183 0.348232 4 6144 5 6485 3 6103 1 5455 6 6610
381 -3.24696 -0.470267 9.64617 130 154 204 0.259994 4 6157 5 7129
748 -4.45603 -0.784837 6.91177 109 172 255 0.974309 5 1071 3 967 1 1442 4 157 6 241 2 225
383 -3.56068 -0.312854 8.95506 138 164 219 0.6546 4 6165 5 7069 3 6101 6 6650 2 4896
529 -4.27102 -0.778431 7.44321 135 182 254 0.207227 5 310 3 282 1 395
519 -5.08451 2.20209 5.93276 16 122 198 0.987735 5 400 3 253 1 491 6 200
1555 -4.80938 0.697911 6.37708 2 72 176 0.999488 4 3722 3 6161 1 3252 3 3336 6 2307 5 7055 2 6258
386 -4.03825 -0.0219439 7.92701 71 107 183 0.356648 4 6211 5 4217 3 3269
388 -3.591 -0.169246 8.94876 123 152 209 0.311222 4 6240 5 7149 6 6707 2 4953
533 -4.04942 -0.785078 7.77933 127 163 250 0.359728 5 522 3 288 1 426
390 -4.35044 0.253935 7.30889 152 167 222 0.152502 4 6299 5 7030 6 6219
392 -3.58079 -0.00823399 8.93714 173 176 211 0.768397 4 6305 5 4357 1 5580
537 -2.86755 -1.28478 10.3838 116 158 255 0.569573 5 367 3 295 1 409
1563 -3.62123 0.0496726 8.90013 40 53 87 0.330882 5 7217 3 6184 1 3279
